ncols         388
nrows         31
xllcorner     649450.063
yllcorner     658377.469
cellsize      30
nodata_value  -9999.0
181.527 180.654 179.799 179.028 178.382 177.669 176.69 175.589 174.552 173.674 172.758 171.647 170.636 169.812 168.918 167.912 167.026 166.154 164.99 163.556 162.086 160.56 158.838 156.996 155.356 154.184 153.295 152.334 151.338 150.577 150.343 150.383 150.031 149.179 148.216 147.387 146.708 146.044 145.288 144.436 143.425 142.491 141.16 139.359 137.362 135.315 133.472 132.04 130.735 129.337 128.205 127.501 127.074 127.051 127.845 129.189 130.586 131.851 133.078 134.37 135.643 136.515 137.202 137.685 138.22 138.722 139.107 139.014 138.006 135.814 132.672 129.246 125.869 122.329 118.73 115.135 111.299 107.022 102.669 98.62 95.165 92.608 91.247 91.192 92.163 94.005 96.7 100.047 103.633 107.085 110.115 112.584 114.501 116.114 117.437 118.478 119.062 119.053 118.531 117.855 117.063 116.424 115.631 114.582 113.365 111.904 110.224 108.244 105.988 103.785 101.891 100.151 98.363 96.687 95.302 94.235 93.267 93.276 94.139 96.362 100.135 104.636 109.016 113.29 117.705 122.377 127.761 133.868 139.749 144.083 146.293 146 144.269 142.1 139.713 137.234 134.933 133.13 132.313 132.181 132.243 132.718 133.532 134.695 136.12 137.768 139.776 141.981 144.155 146.309 148.563 150.889 153.317 156.002 158.899 161.661 164.082 166.383 168.661 170.827 172.816 174.418 175.614 176.612 177.549 178.377 178.794 178.61 178.175 177.685 177.028 176.18 175.22 174.144 172.89 171.406 170.533 169.734 168.761 168.072 167.925 168.311 168.927 169.549 170.186 170.742 170.846 170.756 170.679 170.228 169.123 168.017 167.992 167.218 165.012 161.933 158.004 153.589 149.373 145.392 141.389 137.707 134.502 131.687 129.022 126.622 125.336 124.119 122.403 120.932 119.626 118.356 117.222 116.385 115.657 115.16 115.419 116.566 118.863 122.39 126.261 130.038 133.689 136.663 138.353 139.337 139.801 140.045 140.059 139.895 139.819 139.899 140.032 139.902 140.064 140.33 140.912 141.937 143.061 144.062 144.827 145.409 146.024 146.819 147.568 148.191 148.793 149.4 150.055 150.789 151.525 152.171 152.715 153.258 153.933 154.809 155.751 156.749 157.835 158.929 159.886 160.606 161.117 161.405 161.493 161.41 161.206 161.043 160.66 159.946 158.944 157.694 156.174 154.689 153.257 151.615 149.938 148.635 147.326 145.868 144.283 142.521 140.743 139.222 138.035 136.943 135.676 134.285 133.012 131.951 131.475 131.392 131.471 132.012 132.972 134.082 135.239 136.552 137.981 139.275 140.237 140.832 141.22 141.627 142.181 142.899 143.758 144.587 145.401 146.191 146.655 147.08 147.386 147.463 147.588 147.345 146.867 145.452 143.242 139.988 134.84 128.829 122.982 118.055 114.938 113.039 112.722 113.355 114.959 118.624 123.482 127.18 128 126.483 124.16 121.946 119.452 116.714 114.518 113.016 112.513 114.376 118.784 124.687 129.86 130.871 128.621 124.059 117.681 111.308 105.975 101.413 97.346 93.707 90.498 87.238 84.114 81.691 80.372 80.397 81.558 83.616 86.709 91.43 97.935 105.007 110.551 114.615 118.446 122.709 127.519 132.521 137.08 140.671 142.84 143.834 143.482 143.078 142.887 142.598 142.298 142.066 142.204 142.348 142.531 143.306 144.415 145.937
182.225 181.419 180.545 179.744 179.063 178.335 177.425 176.387 175.379 174.382 173.377 172.276 171.143 170.206 169.33 168.374 167.389 166.372 165.13 163.699 162.365 160.889 159.083 157.17 155.45 154.19 153.309 152.449 151.557 150.64 150.113 150.346 150.348 149.817 149.009 148.23 147.454 146.755 146.153 145.435 144.454 143.626 142.31 140.522 138.628 136.629 134.688 133.008 131.507 130.022 128.631 127.298 126.547 126.26 126.394 127.368 128.917 130.405 131.723 133.111 134.54 135.737 136.633 137.168 137.648 137.987 138.288 138.617 138.438 137.3 134.918 131.791 128.622 125.305 121.701 117.962 114.135 110.036 105.458 100.932 96.936 93.725 91.605 90.809 91.196 92.456 94.578 97.535 100.935 104.394 107.618 110.306 112.393 114.175 115.778 116.981 117.722 117.913 117.585 116.933 116.193 115.399 114.59 113.642 112.438 110.949 109.206 107.126 104.785 102.659 100.936 99.324 97.637 96.03 94.631 93.488 92.532 92.271 93.239 95.708 99.537 104.128 108.531 112.78 117.228 121.913 127.29 133.332 139.294 143.679 145.848 145.556 143.954 141.89 139.363 136.615 134.259 132.445 131.352 131.219 131.207 131.625 132.457 133.655 135.142 136.735 138.563 140.655 142.853 145.111 147.51 149.955 152.469 155.155 158.049 160.938 163.517 165.896 168.2 170.357 172.36 174.054 175.354 176.418 177.38 178.226 178.638 178.545 178.077 177.533 176.91 175.994 174.862 173.653 172.192 170.685 169.484 168.61 167.584 166.75 166.263 166.204 166.554 167.125 167.86 168.553 168.98 169.157 169.325 169.335 169.035 167.728 167.207 166.496 164.543 161.724 158.091 153.884 149.698 145.595 141.384 137.355 133.874 130.917 128.001 125.405 123.569 122.507 121.389 119.864 118.368 117.153 116.267 115.803 115.101 114.761 115.244 116.568 119.075 122.727 126.922 130.776 134.341 137.202 138.938 140.103 140.326 140.251 140.267 140.233 140.219 140.276 140.272 140.051 140.054 140.083 140.254 140.948 142.011 143.173 144.189 144.896 145.412 146.011 146.699 147.326 147.818 148.33 148.918 149.592 150.314 150.965 151.475 151.873 152.351 153.048 153.876 154.813 155.882 157.05 158.167 159.081 159.761 160.293 160.573 160.717 160.475 160.418 160.384 159.872 159.006 157.876 156.391 154.855 153.474 151.968 150.446 148.859 147.354 146.014 144.573 142.829 140.933 139.268 138.001 136.878 135.588 134.168 132.85 131.724 130.939 130.546 130.431 131.023 132.107 133.243 134.379 135.656 137.12 138.574 139.751 140.519 140.965 141.351 141.867 142.541 143.305 144.022 144.784 145.481 145.905 146.31 146.65 146.78 146.905 146.743 146.307 145.405 143.76 141.86 138.099 131.99 124.944 118.708 114.969 112.745 111.397 111.803 112.725 114.793 118.761 122.763 124.056 122.247 119.448 117.266 115.081 112.78 110.968 109.52 110.776 114.299 119.407 125.724 130.862 132.3 130.421 126.507 120.444 113.583 107.732 102.952 98.811 95.092 91.703 88.255 84.966 82.363 80.826 80.603 81.52 83.43 86.118 89.736 94.723 100.933 106.958 111.797 115.881 119.95 124.866 130.381 135.512 139.726 142.628 144.231 144.551 144.34 144.138 143.854 143.478 143.149 143.105 143.282 143.368 143.674 144.441 145.629
182.747 182.127 181.351 180.497 179.735 178.969 178.127 177.245 176.234 175.128 173.991 172.829 171.641 170.71 169.798 168.726 167.575 166.402 165.157 163.837 162.431 160.844 159.054 157.185 155.445 154.103 153.147 152.353 151.528 150.721 149.963 150.15 150.32 149.962 149.484 148.809 147.903 147.143 146.664 146.151 145.447 144.655 143.427 141.668 139.761 137.845 135.863 133.991 132.325 130.74 129.143 127.564 125.999 125.475 125.229 125.463 126.934 128.732 130.247 131.7 133.224 134.594 135.737 136.54 137.102 137.482 137.753 137.993 138.218 137.704 135.982 133.522 130.772 127.79 124.41 120.724 116.995 113.012 108.397 103.557 99.041 95.247 92.427 90.818 90.527 91.224 92.866 95.471 98.535 101.804 104.954 107.719 110.121 112.205 113.991 115.258 116.132 116.643 116.617 116.15 115.219 114.137 113.492 112.714 111.479 109.959 108.146 105.985 103.687 101.682 100.034 98.463 96.871 95.339 93.91 92.715 91.845 91.661 92.659 95.179 98.976 103.575 108.071 112.372 116.826 121.532 126.84 132.615 138.519 142.993 145.266 145.226 143.941 141.872 139.245 136.42 133.783 131.788 130.8 130.249 130.621 131.044 131.563 132.715 134.249 135.86 137.532 139.398 141.482 143.808 146.377 148.976 151.54 154.25 157.141 160.062 162.737 165.218 167.648 169.899 171.923 173.662 175.053 176.203 177.219 178.081 178.635 178.741 178.239 177.482 176.834 175.944 174.77 173.4 171.779 170.13 168.764 167.805 166.685 165.575 164.886 164.471 164.36 164.688 165.34 166.026 166.548 167.011 167.486 167.707 167.6 167.134 166.394 165.346 163.828 161.443 158.108 154.171 150.086 145.914 141.532 137.383 133.727 130.389 127.099 124.272 122.033 120.77 120.255 119.027 117.472 116.251 115.439 115.219 114.681 114.521 115.125 116.53 119.131 122.858 127.107 131.313 135.129 137.935 139.786 140.887 140.901 140.739 140.686 140.599 140.561 140.544 140.478 140.388 140.388 140.242 139.991 140.212 141.009 142.11 143.272 144.216 144.863 145.403 146.01 146.6 147.057 147.513 148.005 148.52 149.078 149.652 150.181 150.59 151.001 151.528 152.162 152.895 153.78 154.879 156.073 157.162 158.046 158.774 159.42 159.97 159.919 159.582 159.78 159.583 158.892 157.955 156.624 155.086 153.706 152.33 150.765 149.044 147.506 146.226 144.868 143.117 141.097 139.274 137.904 136.741 135.436 134.001 132.655 131.492 130.526 129.484 129.33 130.092 131.257 132.518 133.676 134.845 136.229 137.759 139.153 140.156 140.727 141.117 141.607 142.261 142.972 143.674 144.308 144.978 145.422 145.655 145.923 146.103 146.174 146.012 145.82 145.333 143.984 142.486 139.13 133.198 126.272 119.817 115.453 112.771 110.56 110.375 111.07 112.107 114.33 117.744 119.679 118.228 115.18 112.936 111.056 109.091 107.577 107.411 109.881 114.325 120.22 126.784 131.68 133.168 131.755 128.437 122.643 115.527 109.428 104.466 100.184 96.419 92.92 89.356 85.947 83.254 81.541 80.976 81.619 83.427 85.712 88.831 92.504 97.376 103.11 108.565 113.21 117.273 122.395 128.385 133.974 138.706 142.221 144.173 145.094 145.363 145.322 145.147 144.774 144.349 144.096 144.038 144.32 144.476 145.024 145.762
183.117 182.696 182.119 181.291 180.404 179.555 178.715 177.902 177.044 175.942 174.659 173.43 172.226 171.245 170.14 168.814 167.547 166.376 165.192 163.929 162.442 160.719 158.905 157.107 155.41 154.07 153.011 152.137 151.409 150.709 150.023 150.014 150.024 149.677 149.386 149.087 148.316 147.555 147.102 146.678 146.107 145.397 144.291 142.641 140.759 138.883 136.937 135.005 133.234 131.519 129.798 128.045 126.289 124.706 123.707 123.504 124.809 126.786 128.572 130.19 131.761 133.268 134.592 135.642 136.418 136.965 137.329 137.686 137.908 137.68 136.607 134.714 132.315 129.617 126.526 123.188 119.707 115.788 111.273 106.419 101.504 97.176 93.754 91.411 90.309 90.389 91.54 93.698 96.395 99.399 102.204 105.019 107.716 109.99 111.813 113.157 114.12 114.796 115.053 114.872 113.93 112.879 112.48 111.792 110.477 108.864 106.955 104.796 102.664 100.781 99.125 97.564 96.074 94.6 93.132 91.904 91.253 91.183 92.081 94.469 98.247 102.967 107.661 112.028 116.457 121.317 126.719 132.388 137.828 142.101 144.594 145.109 143.928 141.784 139.184 136.349 133.669 131.578 130.481 129.804 129.981 130.398 130.901 131.9 133.407 135.077 136.671 138.325 140.226 142.515 145.188 148.034 150.608 153.29 156.189 159.097 161.819 164.405 167.013 169.431 171.511 173.314 174.787 175.994 177.053 177.936 178.526 178.786 178.531 177.725 176.89 175.949 174.76 173.343 171.64 169.729 168.103 166.649 165.257 164.607 163.762 162.96 162.518 162.488 162.887 163.409 163.907 164.457 165.054 165.524 165.578 165.305 164.681 163.766 162.666 160.913 158.031 154.338 150.371 146.231 141.795 137.597 133.791 130.222 126.73 123.407 121.006 119.342 118.829 117.866 116.438 115.402 114.783 114.746 114.36 114.276 114.973 116.43 119.007 122.704 126.993 131.325 135.295 138.583 140.573 141.637 141.682 141.584 141.458 141.15 140.891 140.713 140.589 140.531 140.679 140.595 140.08 139.922 140.306 141.09 142.121 143.196 144.114 144.836 145.433 146.008 146.515 146.929 147.351 147.743 148.08 148.444 148.876 149.318 149.623 149.996 150.475 151.051 151.826 152.793 153.901 155.011 156.036 156.972 157.833 158.631 159.144 159.451 159.386 159.083 158.656 157.944 156.852 155.347 153.897 152.592 151.051 149.336 147.823 146.506 145.161 143.346 141.164 139.182 137.71 136.531 135.246 133.83 132.484 131.261 130.157 129.205 128.733 129.139 130.289 131.685 132.94 134.051 135.335 136.866 138.413 139.667 140.447 140.908 141.396 142.043 142.739 143.401 144.039 144.591 144.905 145.014 145.171 145.301 145.386 145.271 145.283 145.157 144.372 142.627 139.039 133.605 127.372 121.181 116.309 113.166 110.914 109.125 109.379 110.035 110.625 113.081 115.293 114.167 111.123 108.894 107.274 105.319 104.196 105.566 109.089 114.35 120.972 127.68 132.338 133.944 132.736 129.616 124.24 117.322 111.171 106.021 101.507 97.695 94.137 90.494 86.988 84.298 82.481 81.481 81.833 83.437 85.381 87.991 91.236 95.042 99.652 105.04 110.284 115.083 120.819 126.998 132.601 137.622 141.641 144.01 145.2 145.867 146.123 146.149 145.898 145.486 145.17 144.973 144.89 145.211 145.892 146.298
183.617 183.164 182.69 182.033 181.089 180.105 179.187 178.426 177.688 176.724 175.389 174.003 172.739 171.606 170.315 168.829 167.455 166.304 165.205 164.049 162.508 160.605 158.705 156.958 155.373 153.99 152.866 151.923 151.136 150.545 150.013 149.676 149.537 149.271 148.985 148.835 148.595 148.153 147.431 146.911 146.423 145.793 144.885 143.478 141.709 139.813 137.892 136.022 134.227 132.42 130.554 128.706 126.866 125.032 123.455 122.236 122.947 124.692 126.572 128.483 130.176 131.711 133.162 134.461 135.567 136.371 136.952 137.364 137.299 137.21 136.623 135.14 133.233 130.764 127.825 124.967 121.989 118.312 113.965 109.2 104.16 99.526 95.598 92.522 90.629 90.017 90.604 92.258 94.533 97.167 99.668 102.359 105.061 107.44 109.292 110.752 111.836 112.587 113.124 113.072 112.506 111.533 111.3 110.716 109.343 107.662 105.715 103.685 101.759 99.935 98.215 96.666 95.248 93.8 92.333 91.134 90.746 90.817 91.509 93.725 97.614 102.506 107.294 111.674 116.062 120.904 126.292 131.929 137.201 141.411 144.101 144.785 143.749 141.718 139.168 136.359 133.654 131.448 130.115 129.337 129.222 129.532 130.03 131.037 132.552 134.248 135.859 137.42 139.143 141.274 143.915 146.855 149.619 152.362 155.262 158.184 160.951 163.617 166.361 168.945 171.12 173.042 174.585 175.8 176.87 177.769 178.394 178.737 178.706 178.124 177.277 176.231 174.865 173.383 171.622 169.593 167.607 165.95 164.464 163.679 162.871 161.697 160.902 160.605 160.692 160.983 161.369 161.893 162.496 163.002 163.225 163.208 162.872 162.261 160.995 159.632 157.582 154.348 150.527 146.55 142.293 137.991 134.012 130.275 126.612 123.096 120.339 118.467 117.69 116.801 115.547 114.597 114.136 114.237 113.995 114.118 114.964 116.416 118.862 122.421 126.687 131.113 135.199 138.697 141.273 142.422 142.501 142.583 142.506 142.055 141.538 141.054 140.683 140.463 140.653 140.751 140.26 140.035 140.017 140.289 140.935 141.904 143.011 144.028 144.825 145.418 145.929 146.366 146.776 147.11 147.355 147.582 147.851 148.209 148.571 148.948 149.315 149.786 150.355 151.047 151.94 152.941 154.027 155.163 156.247 157.166 157.976 158.658 158.861 158.629 158.319 157.879 157.019 155.569 154.082 152.78 151.371 149.752 148.176 146.752 145.367 143.522 141.217 139.082 137.498 136.331 135.067 133.661 132.338 131.093 129.942 129.309 128.829 128.511 129.218 130.672 132.081 133.248 134.448 135.908 137.514 138.961 140.007 140.639 141.178 141.838 142.541 143.195 143.808 144.298 144.541 144.652 144.645 144.63 144.696 144.646 144.827 144.914 144.516 142.859 139.354 134.383 128.481 122.229 117.253 113.646 110.898 109.038 108.269 107.834 107.747 109.4 111.124 109.733 107.052 105.287 104.266 102.627 102.493 104.711 108.599 114.403 121.399 128.145 132.66 134.528 133.499 130.422 125.556 119.193 113.043 107.637 102.889 98.889 95.238 91.563 87.992 85.178 83.167 81.866 82.058 83.504 85.217 87.472 90.643 93.857 97.359 102.117 107.663 113.461 119.625 125.712 131.202 136.305 140.727 143.909 145.56 146.333 146.641 146.76 146.702 146.48 146.165 145.881 145.658 145.566 146.198 146.584
183.802 183.221 182.923 182.511 181.751 180.782 179.71 178.885 178.267 177.314 175.882 174.416 173.135 171.911 170.477 168.844 167.373 166.24 165.224 164.023 162.421 160.514 158.597 156.812 155.197 153.85 152.756 151.634 150.583 149.957 149.337 148.864 148.609 148.352 148.16 148.075 147.902 147.468 147.08 146.906 146.522 145.903 145.164 144.072 142.517 140.639 138.729 136.942 135.209 133.397 131.414 129.453 127.513 125.493 123.511 121.695 121.642 122.667 124.24 126.373 128.368 130.002 131.509 132.975 134.315 135.394 136.211 136.673 136.578 136.343 135.971 134.831 133.32 131.268 128.718 126.282 123.708 120.457 116.419 111.701 106.713 102.06 97.791 94.042 91.353 90.046 90.094 91.196 92.974 95.165 97.395 99.856 102.398 104.741 106.618 108.241 109.622 110.479 111.008 111.15 111.03 110.328 109.972 109.212 107.936 106.384 104.58 102.785 101.02 99.172 97.36 95.806 94.384 92.921 91.529 90.537 90.398 90.649 91.393 93.593 97.424 102.219 106.923 111.277 115.541 120.078 125.118 130.654 135.979 140.267 143.261 144.3 143.511 141.66 139.2 136.436 133.719 131.398 129.692 128.798 128.187 128.489 129.138 130.146 131.617 133.305 135.007 136.585 138.186 140.117 142.616 145.561 148.591 151.451 154.394 157.385 160.211 162.914 165.683 168.376 170.692 172.686 174.3 175.572 176.677 177.609 178.265 178.588 178.711 178.412 177.672 176.588 175.148 173.568 171.676 169.513 167.411 165.551 163.914 162.461 161.695 160.668 159.451 158.821 158.672 158.765 159.042 159.491 160.029 160.516 160.882 161.083 160.962 160.133 159.109 157.893 156.377 153.97 150.527 146.662 142.699 138.448 134.328 130.458 126.689 123.05 119.811 117.768 116.602 115.609 114.66 113.821 113.427 113.458 113.545 114.128 115.259 116.698 118.878 122.146 126.206 130.605 134.925 138.741 141.531 143.08 143.24 143.441 143.595 143.158 142.461 141.719 141.064 140.656 140.688 140.723 140.444 140.073 139.854 139.792 139.993 140.638 141.671 142.871 143.952 144.747 145.295 145.775 146.2 146.494 146.76 147.061 147.306 147.48 147.778 148.017 148.247 148.657 149.056 149.552 150.268 151.126 152.201 153.462 154.782 155.826 156.666 157.37 157.883 157.984 157.872 157.765 157.113 155.759 154.364 153.007 151.644 150.138 148.568 147.092 145.523 143.657 141.342 139.112 137.432 136.213 134.939 133.519 132.197 130.872 129.768 128.719 128.969 128.31 128.247 129.577 131.148 132.496 133.662 134.993 136.561 138.12 139.399 140.247 140.877 141.548 142.26 142.931 143.556 144.004 144.378 144.676 144.516 144.339 144.365 144.364 144.657 144.702 144.385 143.059 140.15 135.651 129.685 123.1 117.903 113.992 110.956 109.111 107.358 106.368 105.773 106.129 106.731 105.376 103.668 102.617 102.162 101.467 101.959 104.215 108.396 114.658 121.627 128.124 132.527 134.473 133.745 130.868 126.572 120.942 114.874 109.13 104.164 100.022 96.276 92.577 88.973 85.971 83.813 82.422 82.364 83.569 85.237 87.31 90.071 93.155 96.303 100.365 105.893 112.163 118.437 124.274 129.674 134.863 139.543 143.159 145.432 146.456 146.817 147.044 147.112 147.056 146.91 146.714 146.449 146.289 146.407 146.758
183.026 182.319 182.374 182.365 182.139 181.477 180.432 179.639 178.839 177.7 176.186 174.665 173.379 172.104 170.589 168.866 167.338 166.218 165.21 163.902 162.208 160.282 158.347 156.531 154.865 153.618 152.385 151.105 149.895 149.084 148.399 147.715 147.241 146.888 146.683 146.627 146.534 146.44 146.388 146.283 146.084 145.688 145.157 144.284 142.919 141.185 139.343 137.633 136.035 134.331 132.367 130.265 128.154 125.999 123.783 121.862 121.132 120.96 121.817 123.93 126.263 128.195 129.803 131.322 132.756 133.974 134.938 135.516 135.515 135.047 134.968 134.159 132.748 131.169 129.291 127.062 124.635 121.895 118.35 113.771 108.886 104.373 100.011 95.79 92.391 90.41 89.932 90.453 91.636 93.303 95.315 97.546 99.848 102.039 103.94 105.707 107.249 108.44 109.086 109.446 109.515 109.164 108.458 107.391 106.374 105.118 103.592 102.015 100.298 98.384 96.515 94.939 93.464 91.993 90.784 89.963 90.062 90.581 91.445 93.577 97.336 101.968 106.497 110.71 114.733 119.023 123.823 129.07 134.305 138.763 142.1 143.711 143.252 141.588 139.276 136.58 133.865 131.436 129.575 128.405 127.811 127.895 128.323 129.169 130.54 132.239 134.019 135.688 137.279 139.083 141.4 144.211 147.207 150.343 153.55 156.659 159.565 162.265 164.957 167.684 170.159 172.221 173.895 175.267 176.467 177.478 178.171 178.48 178.596 178.468 177.888 176.856 175.462 173.814 171.792 169.506 167.28 165.251 163.447 161.82 160.513 159.152 158.051 157.087 156.612 156.534 156.704 157.108 157.599 158.078 158.529 158.866 158.896 158.514 157.722 156.673 155.048 152.945 150.167 146.686 142.938 138.905 134.686 130.662 126.852 123.121 119.662 117.353 115.56 114.265 113.598 113.053 112.785 112.7 113.054 114.162 115.894 117.176 118.883 121.806 125.58 129.904 134.492 138.694 141.671 143.416 143.988 144.296 144.547 144.26 143.527 142.681 141.813 141.061 140.84 140.784 140.428 139.857 139.486 139.385 139.429 139.673 140.388 141.53 142.77 143.809 144.571 145.129 145.602 145.897 146.147 146.463 146.656 146.739 146.786 146.824 146.98 147.264 147.566 147.979 148.614 149.401 150.376 151.576 153.026 154.409 155.472 156.217 156.74 157.114 157.261 157.162 156.815 155.804 154.53 153.184 151.842 150.405 148.891 147.432 145.853 143.904 141.556 139.292 137.522 136.101 134.777 133.391 132.041 130.569 129.214 127.862 127.91 127.319 127.302 128.497 130.085 131.664 132.932 134.178 135.625 137.182 138.609 139.659 140.427 141.148 141.865 142.568 143.214 143.672 144.027 144.325 144.383 144.377 144.411 144.428 144.393 144.229 144 143.043 141.404 137.714 131.905 125.352 120.05 116.014 112.627 110.18 108.116 106.168 104.525 103.545 103.009 102.504 101.66 101.086 100.683 100.382 101.28 103.677 107.985 114.437 121.359 127.662 131.998 134.055 133.516 130.703 126.819 121.983 116.288 110.384 105.251 101.026 97.241 93.555 89.959 86.689 84.337 83.066 82.745 83.621 85.325 87.296 89.701 92.606 95.944 99.964 105.232 111.631 118.095 123.525 128.453 133.627 138.346 142.166 144.81 146.123 146.636 147.011 147.25 147.332 147.23 147.224 147.098 146.908 146.995 147.211
182.611 181.228 181.05 181.741 182.018 181.686 180.974 180.214 179.196 177.792 176.236 174.752 173.443 172.169 170.651 168.913 167.389 166.265 165.189 163.73 161.875 159.915 157.987 156.147 154.422 153.099 151.73 150.252 149.086 148.062 147.024 146.061 145.475 144.979 144.612 144.482 144.438 144.495 144.639 144.813 144.839 144.856 144.756 144.104 142.964 141.413 139.681 138.07 136.604 135.085 133.283 131.097 128.841 126.616 124.279 122.049 120.336 119.359 119.702 121.41 123.862 126.195 128.025 129.589 131.007 132.3 133.338 134.006 134.232 134.121 134.125 133.423 131.941 130.923 129.528 127.471 125.241 122.74 119.568 115.347 110.637 106.161 101.92 97.606 93.724 91.103 89.996 90.012 90.573 91.706 93.412 95.38 97.443 99.425 101.351 103.168 104.737 106.041 107.022 107.643 107.949 107.807 107.078 105.753 104.848 103.949 102.701 101.217 99.494 97.596 95.752 94.107 92.553 91.126 90.261 89.554 89.767 90.552 91.576 93.664 97.211 101.618 105.954 109.864 113.78 117.994 122.523 127.409 132.484 137.098 140.755 142.922 142.878 141.473 139.346 136.739 134.02 131.484 129.47 128.153 127.407 127.184 127.585 128.274 129.449 131.078 132.882 134.664 136.364 138.159 140.291 142.903 145.993 149.311 152.663 155.929 158.955 161.66 164.225 166.899 169.497 171.706 173.476 174.942 176.26 177.355 178.105 178.495 178.604 178.468 177.933 176.974 175.708 174.037 171.931 169.559 167.215 165.098 163.062 161.176 159.378 157.713 156.677 155.36 154.494 154.225 154.219 154.528 154.996 155.494 156.004 156.39 156.529 156.338 155.808 155.053 153.838 151.602 149.189 146.413 142.954 139.042 134.867 130.863 127.045 123.19 119.493 116.897 114.792 113.288 112.453 112.151 112.108 112.44 113.203 114.674 116.954 118.091 118.989 121.56 125.182 129.277 133.688 138.005 141.422 143.548 144.558 145.076 145.297 145.149 144.611 143.818 142.846 141.867 141.273 141.007 140.553 139.863 139.032 138.819 138.996 139.06 139.449 140.282 141.405 142.542 143.539 144.238 144.716 145.014 145.333 145.53 145.583 145.547 145.443 145.348 145.424 145.56 145.849 146.222 146.744 147.464 148.417 149.687 151.203 152.736 154.034 155.015 155.705 156.168 156.435 156.235 155.956 155.48 154.53 153.269 151.962 150.557 149.109 147.712 146.14 144.181 141.872 139.579 137.692 136.099 134.604 133.24 131.877 130.266 128.576 126.938 126.413 126.142 126.397 127.437 128.933 130.629 132.123 133.433 134.702 136.122 137.583 138.791 139.773 140.651 141.412 142.153 142.83 143.347 143.732 143.917 144.224 144.439 144.517 144.316 143.924 143.645 143.523 143.106 142.304 140.238 135.882 130.14 125.031 120.742 116.763 113.377 110.331 107.095 104.902 102.69 101.393 100.892 100.437 100.221 99.837 99.365 100.008 102.21 106.546 113.235 120.399 126.643 131.12 133.594 133.156 130.181 126.35 122.115 117.079 111.352 106.093 101.791 98.018 94.394 90.859 87.573 84.89 83.446 83.01 83.686 85.229 87.093 89.419 92.545 96.215 100.471 105.722 112.019 118.3 123.571 127.815 132.461 137.111 141.049 143.852 145.42 146.131 146.631 147.149 147.425 147.17 147.189 147.395 147.44 147.497 147.599
181.266 180.487 180.406 181.233 181.511 181.283 180.903 180.09 178.885 177.476 176.05 174.685 173.413 172.149 170.653 168.964 167.485 166.318 165.114 163.542 161.537 159.499 157.61 155.754 153.986 152.475 150.843 149.169 147.825 146.567 145.313 144.204 143.414 142.699 142.105 141.693 141.541 141.659 141.928 142.393 142.885 143.2 143.307 143.104 142.495 141.315 139.866 138.362 136.947 135.592 133.896 131.742 129.491 127.267 124.897 122.491 120.386 118.573 117.924 118.973 121.235 123.799 125.959 127.697 129.199 130.556 131.685 132.451 132.831 132.914 132.763 132.071 130.836 130.44 129.549 127.549 125.439 123.307 120.549 116.738 112.114 107.449 103.328 99.256 95.266 92.127 90.363 89.863 89.977 90.535 91.699 93.357 95.174 96.964 98.81 100.529 102.047 103.44 104.633 105.627 106.299 106.309 105.671 104.394 103.385 102.718 101.74 100.239 98.565 96.849 95.121 93.39 91.754 90.396 89.84 89.344 89.709 90.611 91.75 93.832 97.094 101.206 105.215 108.959 112.845 116.927 121.151 125.589 130.413 135.2 139.314 142 142.491 141.37 139.403 136.899 134.145 131.485 129.349 127.973 127.155 126.471 126.743 127.4 128.374 129.881 131.684 133.53 135.37 137.238 139.27 141.768 144.853 148.232 151.665 155.073 158.262 161.031 163.492 166.043 168.683 171.08 173.027 174.647 176.103 177.249 178.071 178.547 178.67 178.53 177.966 177.017 175.781 174.138 172.034 169.616 167.204 165.051 162.985 160.695 158.559 156.781 155.593 154.024 152.685 152.128 151.846 151.864 152.204 152.683 153.183 153.586 153.833 153.835 153.534 152.582 151.252 150.073 148.108 145.646 142.617 138.941 134.902 130.985 127.165 123.154 119.234 116.364 114.016 112.369 111.548 111.47 111.688 112.38 113.758 115.749 118.316 120.236 120.167 121.977 125.204 128.75 132.874 137.192 140.98 143.489 144.817 145.592 145.821 145.763 145.493 144.925 144.034 142.95 141.928 141.275 140.769 139.934 138.998 138.631 138.642 138.597 138.733 139.171 140 141.052 142.09 142.931 143.45 143.774 144.025 144.147 144.205 144.089 143.824 143.569 143.529 143.627 143.878 144.306 144.755 145.351 146.25 147.474 148.962 150.521 151.973 153.29 154.363 155.132 155.62 155.843 155.401 154.829 154.191 153.182 152.044 150.733 149.341 148.017 146.481 144.518 142.231 139.922 137.904 136.102 134.422 132.984 131.585 129.884 127.797 125.896 124.567 125.262 125.888 126.45 127.761 129.418 131.104 132.566 133.797 135.087 136.431 137.758 138.928 139.946 140.85 141.683 142.436 142.974 143.264 143.532 144.009 144.263 144.267 143.944 143.753 143.368 143.082 142.96 142.654 141.924 139.959 136.257 131.825 127.357 122.88 118.701 114.613 110.256 106.868 104.122 101.779 100.24 99.4 99.262 99.115 98.723 99.093 100.844 104.878 111.349 118.438 124.8 129.759 132.545 132.252 129.253 125.684 122.002 117.33 111.886 106.593 102.207 98.515 95.014 91.576 88.338 85.608 83.835 83.228 83.794 85.192 86.991 89.355 92.516 96.487 101.237 106.954 113.08 118.603 123.311 127.107 131.256 135.834 139.795 142.624 144.494 145.393 146.078 146.868 147.33 147.348 147.087 147.283 147.706 147.885 147.919
179.43 178.761 178.662 179.511 180.053 180.125 180.052 179.368 178.127 176.743 175.478 174.324 173.221 172.022 170.546 168.968 167.526 166.307 165.016 163.393 161.366 159.102 157.198 155.318 153.492 151.662 149.649 147.78 146.28 144.777 143.247 142.002 140.904 140.021 139.299 138.508 138.116 138.194 138.498 139.012 139.647 140.284 140.881 141.294 141.049 140.486 139.687 138.392 137.035 135.757 134.187 132.183 130.033 127.855 125.523 123.084 120.767 118.828 117.387 117.375 118.707 120.959 123.416 125.489 127.187 128.64 129.96 130.97 131.475 131.684 131.641 131.109 129.985 129.87 129.337 127.608 125.62 123.724 121.335 117.852 113.356 108.749 104.534 100.605 96.788 93.335 90.939 89.855 89.691 89.917 90.483 91.633 93.079 94.674 96.254 97.728 99.164 100.63 102.027 103.313 104.226 104.653 104.353 103.426 102.073 101.245 100.387 99.111 97.605 96.048 94.476 92.743 91.099 89.834 89.347 89.204 89.901 90.747 91.941 94.059 97.046 100.605 104.309 108.103 111.928 115.795 119.707 123.863 128.504 133.283 137.583 140.782 142.154 141.307 139.401 137.039 134.274 131.502 129.258 127.91 127.103 126.305 126.399 126.7 127.415 128.761 130.427 132.291 134.264 136.264 138.481 140.85 143.782 147.156 150.578 154.021 157.353 160.274 162.741 165.17 167.782 170.371 172.551 174.364 175.966 177.198 178.107 178.644 178.615 178.575 178.113 177.144 175.923 174.284 172.139 169.671 167.227 165.069 162.994 160.589 157.891 155.926 154.189 152.773 151.603 150.566 149.875 149.477 149.535 149.893 150.328 150.713 151.017 151.153 151.019 150.339 148.948 148.182 146.984 144.675 141.733 138.36 134.646 130.917 127.112 122.993 118.867 115.755 113.27 111.54 110.926 110.977 111.598 112.839 114.719 117.079 119.689 121.659 121.216 122.149 125.185 128.493 132.192 136.392 140.336 143.264 145.035 145.775 146.121 146.212 146.11 145.862 145.193 144.136 142.912 141.825 141.063 140.114 139.153 138.531 138.212 138.072 137.919 138.143 138.763 139.572 140.445 141.289 141.893 142.31 142.501 142.565 142.545 142.337 142.054 141.74 141.611 141.729 141.943 142.248 142.673 143.251 144.064 145.174 146.539 147.972 149.376 150.856 152.302 153.521 154.434 154.985 155.149 154.402 153.662 152.929 152.037 150.916 149.647 148.423 146.965 144.993 142.659 140.266 138.107 136.108 134.267 132.641 131.156 129.18 126.805 124.827 123.738 124.196 124.928 125.411 126.552 128.202 129.952 131.593 132.928 134.113 135.323 136.646 137.931 139.124 140.137 141.08 141.933 142.507 142.786 143.096 143.447 143.609 143.558 143.186 143.134 142.882 142.708 142.816 142.748 142.346 141.555 139.943 137.324 133.874 129.857 125.591 120.945 115.642 110.946 107.158 103.964 101.204 99.322 98.712 98.689 98.253 98.526 99.755 102.717 108.285 114.782 121.44 127.264 129.94 130.093 127.977 124.571 121.3 117.037 111.945 106.761 102.281 98.697 95.434 92.135 88.958 86.221 84.33 83.522 83.907 85.161 86.901 89.326 92.636 97.055 102.374 108.614 114.545 119.009 122.956 126.422 130.211 134.621 138.525 141.54 143.627 144.507 145.347 146.222 146.787 147.171 147.133 147.006 147.589 148.098 148.224
177.032 176.688 176.682 177.369 177.912 178.238 178.407 178.08 177.161 175.998 174.76 173.486 172.567 171.556 170.102 168.754 167.421 166.206 164.941 163.335 161.292 158.988 156.911 154.775 152.692 150.53 148.234 146.209 144.548 142.852 140.975 139.406 138.01 136.844 135.931 135.153 134.722 134.698 134.948 135.414 136.002 136.721 137.651 138.651 139.272 139.156 138.734 137.818 136.656 135.549 134.224 132.451 130.478 128.399 126.123 123.706 121.304 119.12 117.4 117.132 117.25 118.287 120.517 122.889 124.868 126.491 127.991 129.227 130.081 130.48 130.575 130.409 129.393 129.314 129.03 127.575 125.832 124.093 121.83 118.58 114.311 109.843 105.776 101.934 98.135 94.492 91.619 90.017 89.518 89.593 89.856 90.469 91.415 92.539 93.729 94.938 96.225 97.679 99.177 100.579 101.612 102.279 102.48 102.446 101.578 99.966 98.564 97.491 96.47 95.189 93.734 92.098 90.518 89.37 88.844 88.632 89.439 90.707 92.143 94.199 96.657 99.471 103.147 107.067 110.859 114.643 118.306 122.245 126.654 131.342 135.704 139.204 141.279 140.921 139.263 137.1 134.408 131.583 129.241 127.727 126.751 126.003 126.228 126.174 126.558 127.771 129.297 131.086 133.089 135.219 137.538 139.896 142.789 146.132 149.471 152.835 156.247 159.41 162.04 164.414 166.985 169.623 171.972 173.978 175.731 177.077 178.106 178.757 178.631 178.575 178.228 177.356 176.207 174.564 172.34 169.809 167.348 165.169 163.045 160.547 157.679 155.301 153.297 151.391 150.499 149.653 148.446 147.557 147.249 147.391 147.683 147.981 148.292 148.501 148.468 147.944 147.087 145.694 144.985 143.405 140.69 137.321 133.898 130.583 126.966 122.841 118.558 115.152 112.567 110.943 110.503 110.802 111.897 113.676 115.963 118.581 121.178 123.14 123.407 122.908 125.017 128.509 131.866 135.667 139.593 142.747 144.822 145.853 146.415 146.562 146.562 146.546 146.115 145.218 144.026 142.741 141.723 140.645 139.491 138.411 137.793 137.493 137.198 137.177 137.493 138.046 138.742 139.518 140.2 140.715 140.969 141.054 141.049 140.812 140.531 140.278 140.151 140.213 140.26 140.404 140.742 141.267 141.996 142.993 144.242 145.545 146.795 148.158 149.665 151.161 152.488 153.473 154.009 154.074 153.347 152.535 151.828 150.942 149.89 148.762 147.423 145.471 143.04 140.523 138.258 136.12 134.17 132.5 130.814 128.614 126.148 124.213 123.15 123.348 123.626 124.02 125.23 126.97 128.815 130.594 132.073 133.209 134.279 135.476 136.772 138.041 139.233 140.309 141.203 141.832 142.242 142.461 142.628 142.726 142.672 142.435 142.233 142.23 142.195 142.325 142.512 142.419 142.056 141.322 139.979 137.856 135.072 131.759 127.633 122.138 116.902 112.44 107.984 103.895 100.629 98.872 98.094 97.737 98.244 99.028 100.618 104.826 110.512 117.179 123.395 126.44 126.9 125.408 122.691 119.641 115.676 111.139 106.342 101.949 98.496 95.52 92.453 89.441 86.762 84.783 83.802 84.027 85.143 86.833 89.328 93.059 97.83 103.382 109.732 115.511 119.278 122.67 125.921 129.465 133.552 137.527 140.549 142.726 143.681 144.384 145.174 145.835 146.428 146.935 147.097 147.428 148.089 148.44
174.487 174.12 174.11 174.92 175.528 175.927 176.452 176.724 176.184 175.305 174.183 172.663 171.593 170.668 169.395 168.038 166.976 165.992 164.77 163.22 161.181 158.934 156.537 154.09 151.696 149.135 146.657 144.489 142.614 140.799 138.752 136.861 135.213 133.811 132.756 132.051 131.556 131.391 131.548 131.883 132.357 133.076 134.158 135.53 136.582 137.186 137.18 136.767 135.983 135.174 134.114 132.496 130.692 128.799 126.618 124.208 121.776 119.582 117.733 117.134 116.698 116.583 117.752 119.951 122.238 124.164 125.821 127.179 128.245 129.006 129.499 129.503 128.873 128.574 128.432 127.319 125.819 124.338 122.174 119.024 114.907 110.647 106.796 103.076 99.305 95.548 92.335 90.321 89.49 89.458 89.622 89.895 90.423 91.069 91.728 92.519 93.553 94.859 96.267 97.572 98.596 99.412 100.207 100.847 100.621 98.829 97.042 95.662 95.167 94.321 92.919 91.434 89.995 89.019 88.581 88.246 88.906 90.617 92.245 93.983 95.609 98.089 101.709 105.553 109.498 113.421 117.098 120.825 124.907 129.427 133.793 137.449 139.847 140.156 139.02 137.117 134.557 131.729 129.312 127.531 126.42 125.642 125.724 125.532 125.761 126.861 128.277 129.97 131.939 134.119 136.501 138.903 141.793 145.104 148.365 151.6 155.019 158.445 161.391 163.835 166.274 168.852 171.273 173.404 175.313 176.853 178.032 178.785 178.825 178.592 178.214 177.562 176.552 174.95 172.729 170.185 167.656 165.419 163.202 160.58 157.58 154.671 152.433 150.512 148.801 148.141 147.14 145.932 145.235 145.096 145.143 145.292 145.611 145.899 145.954 145.577 144.829 143.574 142.892 141.39 139.124 136.282 133.009 129.966 126.72 122.585 118.251 114.574 111.907 110.452 110.203 110.876 112.551 115.113 117.84 120.325 122.98 124.713 125.552 125.25 126.073 128.776 131.88 135.102 138.789 142.114 144.447 145.818 146.592 146.876 147.079 147.086 146.73 146.068 145.055 143.74 142.495 141.319 139.938 138.627 137.619 137.037 136.694 136.5 136.545 136.825 137.273 137.889 138.519 139.01 139.413 139.58 139.643 139.512 139.281 139.11 139.013 139.016 138.934 138.895 139.107 139.506 140.07 140.984 142.176 143.406 144.549 145.749 147.075 148.521 150.002 151.408 152.376 152.791 152.521 151.933 151.449 150.813 149.9 148.811 147.583 145.763 143.345 140.815 138.459 136.182 134.132 132.413 130.553 128.171 125.612 123.624 122.423 122.158 122.327 122.778 123.837 125.617 127.63 129.54 131.139 132.377 133.4 134.41 135.607 136.903 138.137 139.271 140.282 141.073 141.628 141.905 141.976 141.97 141.925 141.853 141.762 141.658 141.661 141.749 141.947 142.052 142.032 141.821 141.11 139.82 137.789 135.815 133.259 128.793 123.803 118.922 113.661 108.521 103.904 100.454 98.296 97.598 97.508 97.871 99.032 101.844 106.361 112.279 117.972 121.557 122.692 121.72 119.696 117.188 113.595 109.255 104.899 100.916 97.744 95.09 92.378 89.692 87.212 85.226 84.091 84.173 85.189 86.863 89.544 93.542 98.329 103.624 109.635 115.257 119.198 122.519 125.585 128.737 132.383 136.171 139.223 141.647 142.812 143.44 144.105 144.746 145.443 146.131 146.736 147.227 147.835 148.487
171.56 171.136 171.287 172.398 173.105 173.535 174.286 174.921 174.919 174.218 173.266 172.181 171.092 170.153 169.177 167.609 166.284 165.399 164.281 162.786 160.821 158.397 155.801 153.266 150.436 147.485 144.903 142.558 140.37 138.305 136.393 134.427 132.668 131.149 129.921 129.075 128.426 128.064 128.084 128.208 128.599 129.381 130.526 131.843 133.307 134.423 135.275 135.252 134.878 134.526 133.754 132.363 130.592 128.868 126.881 124.503 122.039 119.695 117.568 115.843 114.652 114.947 115.604 117.088 119.403 121.648 123.53 124.952 126.099 127.164 127.932 128.293 128.128 127.503 127.529 126.686 125.516 124.374 122.466 119.382 115.207 111.098 107.469 103.952 100.325 96.572 93.113 90.697 89.582 89.382 89.496 89.673 89.958 90.283 90.503 90.862 91.545 92.548 93.675 94.732 95.602 96.35 97.177 98.015 98.534 97.405 95.73 94.355 93.956 93.327 92.079 90.783 89.6 88.834 88.798 88.207 88.357 89.879 91.715 93.289 94.714 96.776 99.896 103.691 107.734 111.803 115.662 119.372 123.264 127.517 131.799 135.564 137.958 139.192 138.786 137.146 134.773 131.968 129.472 127.509 126.209 125.382 125.342 125.098 125.139 125.978 127.245 128.884 130.827 133.008 135.359 137.834 140.755 144.02 147.19 150.322 153.732 157.318 160.593 163.237 165.585 168.024 170.442 172.665 174.723 176.545 177.92 178.724 178.944 178.754 178.292 177.711 176.84 175.352 173.256 170.765 168.074 165.642 163.368 160.685 157.592 154.564 151.974 149.798 147.907 146.684 145.253 143.877 143.124 142.684 142.436 142.479 142.8 143.165 143.302 143.123 142.473 141.483 140.463 139.208 137.191 134.838 132.263 129.338 126.026 121.811 117.363 113.745 111.288 110.098 110.201 111.354 113.612 116.674 119.875 122.804 125.856 127.908 128.66 128.909 129.088 129.945 132.074 134.661 138.028 141.453 143.997 145.769 146.721 147.053 147.409 147.521 147.209 146.741 145.933 144.728 143.366 142.138 140.765 139.158 137.841 136.915 136.322 136.064 135.952 135.979 136.198 136.622 137.097 137.456 137.791 138.04 138.201 138.212 138.057 137.868 137.755 137.716 137.637 137.498 137.568 137.846 138.264 139.015 140.121 141.342 142.478 143.628 144.82 146.138 147.59 149.069 150.378 151.09 151.333 151.082 150.746 150.37 149.584 148.606 147.437 145.82 143.631 141.204 138.758 136.332 134.149 132.328 130.403 127.957 125.322 123.104 121.654 120.8 121.089 121.547 122.461 124.194 126.262 128.298 130.067 131.481 132.549 133.423 134.479 135.755 136.992 138.124 139.138 140.032 140.788 141.343 141.507 141.42 141.351 141.291 141.208 141.14 141.124 141.187 141.344 141.484 141.549 141.516 141.244 140.505 139.09 137.835 136.242 133.098 129.316 124.981 119.692 114.337 109.207 103.692 99.768 97.835 96.845 96.687 97.464 99.409 102.656 107.272 112.56 116.602 118.073 117.513 115.721 113.686 110.679 106.776 102.948 99.344 96.208 94.042 92.009 89.652 87.386 85.564 84.377 84.345 85.29 86.97 89.713 93.779 98.549 103.558 109.003 114.506 118.989 122.417 125.304 128.04 131.198 134.689 137.721 140.33 141.986 142.646 143.239 143.841 144.456 145.101 145.744 146.5 147.294 147.981
168.38 167.809 168.451 169.898 170.626 171.351 172.315 172.928 173.074 172.378 171.724 171.096 170.298 169.501 168.347 167.203 165.512 164.207 163.141 161.781 159.973 157.507 154.906 151.987 148.762 145.701 142.887 140.345 137.823 135.461 133.519 131.754 130.027 128.588 127.206 125.999 125.165 124.501 124.271 124.184 124.558 125.421 126.573 127.913 129.414 130.997 132.536 133.388 133.591 133.265 132.888 131.854 130.327 128.711 126.863 124.643 122.197 119.818 117.601 115.613 113.52 113.336 113.644 114.485 116.348 118.642 120.813 122.469 123.728 124.87 125.945 126.627 126.973 127.194 127.037 125.973 125.009 124.142 122.499 119.629 115.653 111.478 107.839 104.55 101.132 97.436 93.814 91.09 89.758 89.394 89.479 89.617 89.736 89.85 89.939 90.123 90.46 91.073 91.824 92.537 93.137 93.63 94.216 94.943 95.607 95.495 94.785 93.434 92.178 91.869 91.269 90.293 89.477 88.825 88.79 88.047 87.845 88.965 90.66 92.407 93.913 95.635 98.243 101.723 105.616 109.705 113.777 117.637 121.461 125.528 129.717 133.573 136.373 138.491 138.691 137.237 135.013 132.273 129.695 127.516 125.975 124.561 124.256 124.613 124.722 125.116 126.197 127.777 129.701 131.884 134.116 136.697 139.696 142.889 145.94 149.027 152.436 156.07 159.549 162.459 164.877 167.237 169.632 171.899 174.041 176.021 177.612 178.615 179.029 179.029 178.639 177.913 177.014 175.685 173.697 171.247 168.533 165.75 163.417 160.791 157.657 154.566 151.857 149.394 147.228 145.071 143.016 141.752 140.909 140.174 139.696 139.581 139.818 140.17 140.351 140.245 139.833 138.998 137.967 136.604 135.2 133.298 131.13 128.51 124.96 120.602 116.283 112.894 110.713 109.867 110.537 112.299 115.024 118.358 121.727 125.578 129.081 131.148 131.23 131.454 131.652 131.454 132.645 134.68 137.488 140.755 143.468 145.479 146.748 147.345 147.755 147.944 147.733 147.366 146.712 145.673 144.406 143.128 141.78 140.113 138.397 137.112 136.316 135.891 135.644 135.492 135.54 135.801 136.105 136.341 136.553 136.791 136.953 136.976 136.834 136.678 136.476 136.316 136.081 135.856 135.823 135.959 136.382 136.988 137.91 139.086 140.297 141.496 142.727 144.039 145.451 146.888 148.188 149.259 149.785 150.06 149.948 149.711 148.95 148.047 147.134 145.782 143.84 141.495 139.023 136.507 134.165 132.199 130.212 127.752 125.084 122.895 121.528 120.591 120.453 120.468 121.302 122.815 124.725 126.84 128.783 130.402 131.591 132.519 133.464 134.549 135.667 136.783 137.853 138.857 139.734 140.436 140.847 140.868 140.814 140.784 140.72 140.658 140.635 140.569 140.65 140.8 140.897 140.877 140.819 140.649 139.872 138.437 136.753 134.5 131.71 128.312 123.773 118.686 113.573 107.56 101.978 98.385 96.638 96.011 96.146 97.173 99.377 102.811 107.354 111.332 112.91 112.679 111.434 109.3 106.723 103.677 100.59 97.282 94.401 92.45 91.031 89.306 87.27 85.644 84.731 84.755 85.534 87.104 89.824 93.906 98.664 103.47 108.601 114.117 118.876 122.282 124.808 127.315 130.183 133.28 136.277 139.013 141.053 141.843 142.347 143.06 143.653 144.147 144.726 145.477 146.335 147.209
165.254 164.415 165.448 167.11 168.03 169.272 170.185 170.475 170.511 170.098 169.398 168.726 168.109 167.443 166.739 165.992 164.573 162.914 161.457 160.269 158.645 156.285 153.494 150.256 146.983 143.677 140.769 137.963 135.123 132.685 130.86 129.204 127.47 125.879 124.25 122.637 121.459 120.649 120.297 120.216 120.579 121.365 122.436 123.77 125.3 126.914 128.616 130.341 131.327 131.734 131.504 130.685 129.487 128.218 126.685 124.652 122.298 119.941 117.724 115.608 113.717 111.89 111.15 111.625 112.994 115.091 117.427 119.497 121.096 122.416 123.61 124.691 125.362 125.836 125.992 125.188 124.303 123.706 122.376 119.755 116.043 112 108.333 104.991 101.634 98.017 94.346 91.472 89.942 89.428 89.362 89.562 89.718 89.794 89.873 90.039 90.193 90.469 90.864 91.226 91.483 91.671 92.001 92.493 93.119 93.44 92.989 92.384 91.659 91.103 90.546 89.833 89.436 88.928 88.645 87.996 87.625 88.235 89.603 91.283 92.818 94.459 96.648 99.708 103.367 107.321 111.485 115.541 119.424 123.368 127.509 131.526 134.878 137.179 138.287 137.32 135.153 132.566 129.965 127.582 125.63 124.05 122.919 123.273 123.857 124.245 125.226 126.664 128.542 130.747 132.999 135.638 138.649 141.76 144.802 147.888 151.131 154.75 158.365 161.563 164.197 166.586 168.979 171.253 173.405 175.48 177.248 178.406 178.99 179.198 178.972 178.277 177.206 175.928 174.071 171.692 169.018 166.14 163.633 160.914 157.775 154.667 151.877 149.295 146.769 144.095 141.472 139.847 138.896 137.894 137.219 136.904 136.823 137 137.204 137.229 136.992 136.533 135.733 134.234 133.04 131.749 129.788 127.135 123.49 119.226 115.187 112.105 110.218 109.742 110.904 113.369 116.469 119.911 123.616 127.65 131.477 133.43 133.215 133.299 133.619 133.533 133.832 135.3 137.42 140.092 142.79 144.992 146.714 147.716 148.292 148.684 148.452 147.979 147.389 146.527 145.429 144.18 142.864 141.207 139.306 137.677 136.531 135.832 135.447 135.246 135.189 135.307 135.493 135.616 135.726 135.899 135.994 135.918 135.754 135.643 135.324 134.962 134.578 134.155 133.885 133.743 134.051 134.708 135.584 136.659 137.897 139.247 140.611 141.946 143.333 144.749 146.037 147.16 148.095 148.663 149.041 148.997 148.363 147.373 146.498 145.473 143.8 141.6 139.163 136.578 134.097 132.007 129.983 127.549 124.956 122.849 121.206 119.903 119.903 119.606 119.941 121.339 123.18 125.233 127.26 129.082 130.596 131.743 132.646 133.507 134.454 135.561 136.682 137.734 138.55 139.238 139.885 140.19 140.246 140.295 140.278 140.244 140.231 140.133 140.13 140.203 140.325 140.372 140.286 140.262 139.997 139.045 137.344 135.102 132.168 128.946 124.978 120.14 115.266 109.794 103.99 99.788 97.144 95.435 95.158 95.612 96.861 99.136 102.413 105.887 107.663 107.842 106.904 105.034 103.038 100.605 97.997 95.178 92.828 91.083 89.755 88.409 86.805 85.43 85.13 85.585 86.05 87.338 89.931 93.883 98.579 103.319 108.417 113.88 118.633 121.975 124.431 126.766 129.286 132.025 135.043 137.895 140.074 141.321 141.637 142.242 142.954 143.392 143.877 144.558 145.335 146.268
162.525 161.423 162.472 164.012 165.238 166.636 167.217 167.386 167.427 166.992 166.324 165.73 165.227 164.708 164.207 163.631 162.889 161.537 159.834 158.408 156.803 154.592 151.799 148.436 144.987 141.614 138.5 135.504 132.685 130.309 128.329 126.537 124.75 122.916 121.22 119.452 118.01 117.188 116.901 116.921 117.167 117.717 118.602 119.738 121.159 122.746 124.444 126.321 128.182 129.301 129.798 129.475 128.212 127.241 126.053 124.151 121.942 119.809 117.735 115.586 113.455 111.163 109.674 109.473 110.023 111.455 113.61 115.9 117.966 119.748 121.265 122.53 123.496 124.207 124.462 124.2 123.913 123.402 122.134 119.724 116.257 112.402 108.751 105.341 101.929 98.41 94.823 91.863 90.119 89.416 89.26 89.457 89.738 89.904 90.014 90.145 90.355 90.532 90.686 90.794 90.769 90.711 90.843 91.06 91.365 91.576 91.407 91.155 90.902 90.649 90.164 89.404 89.516 89.505 89.17 88.608 88.065 88.154 89.021 90.299 91.605 93.197 95.073 97.603 101.099 104.979 109.076 113.257 117.277 121.194 125.288 129.47 133.152 135.582 137.193 136.908 135.177 132.892 130.272 127.737 125.243 123.41 122.476 122.29 122.942 123.593 124.299 125.544 127.394 129.616 131.884 134.568 137.624 140.684 143.692 146.843 150.035 153.433 157.099 160.601 163.484 165.976 168.427 170.753 172.916 175.017 176.862 178.093 178.814 179.19 179.111 178.567 177.59 176.315 174.491 172.163 169.541 166.644 163.9 161.067 157.951 154.838 151.974 149.277 146.383 143.177 140.571 138.525 137.287 136.14 135.298 134.687 134.051 133.898 134.09 134.263 134.234 133.971 133.525 132.295 130.775 129.806 128.198 125.331 121.566 117.668 114.141 111.436 109.855 109.754 111.31 114.081 117.399 121.159 125.5 129.872 133.627 135.578 135.195 135.095 135.287 135.05 135.222 135.723 137.387 139.625 142.054 144.399 146.371 147.658 148.681 149.364 149.212 148.612 147.988 147.259 146.351 145.252 143.932 142.294 140.397 138.506 137.09 136.097 135.387 135.021 134.899 134.888 134.948 135.004 135.082 135.147 135.131 134.976 134.839 134.595 134.223 133.806 133.165 132.581 132.01 131.548 131.613 132.206 133.078 134.122 135.382 136.823 138.292 139.704 141.129 142.54 143.826 145.001 146.04 146.907 147.497 147.76 147.695 146.737 145.692 144.844 143.419 141.476 139.155 136.525 133.952 131.776 129.722 127.332 124.907 122.51 120.798 119.457 119.291 118.631 118.547 119.863 121.714 123.668 125.644 127.556 129.365 130.852 131.93 132.743 133.513 134.424 135.488 136.563 137.434 138.083 138.669 139.134 139.504 139.739 139.746 139.724 139.727 139.7 139.68 139.657 139.734 139.899 139.816 139.443 139.509 139.21 137.794 135.433 132.226 128.595 124.163 119.016 114.218 109.607 105.016 101.095 98.082 95.81 94.629 94.541 95.229 96.47 98.359 100.993 103.041 103.599 102.76 101.199 99.549 97.771 95.874 93.693 91.722 89.877 88.474 87.07 85.801 85.243 85.577 86.485 86.992 87.976 90.259 93.873 98.336 103.063 108.259 113.601 118.136 121.43 123.862 125.979 128.215 130.948 133.987 136.855 139.165 140.619 140.825 141.306 142.084 142.65 143.143 143.714 144.414 145.242
160.321 159.38 159.994 160.801 161.913 163.109 163.659 163.973 164.012 163.56 162.883 162.34 161.991 161.667 161.388 160.946 160.334 159.458 158.072 156.639 154.907 152.656 149.883 146.541 142.887 139.425 136.271 133.287 130.628 128.301 126.052 123.918 121.952 119.991 118.215 116.728 115.315 114.379 114.042 114.011 114.195 114.64 115.335 116.222 117.407 118.841 120.376 122.133 124.068 125.894 127.017 127.47 127.015 126.297 125.087 123.115 120.976 119.172 117.453 115.435 113.217 111.148 108.664 107.574 107.579 108.245 109.846 111.949 114.235 116.495 118.501 120.143 121.368 122.244 122.74 122.909 122.894 122.735 121.786 119.574 116.358 112.74 109.143 105.648 102.226 98.772 95.263 92.168 90.226 89.457 89.359 89.723 90.04 90.229 90.391 90.579 90.916 91.168 91.282 91.234 91.015 90.772 90.571 90.412 90.47 90.502 90.377 90.216 90.061 90.181 90.029 89.319 89.622 90.31 90.086 89.348 88.575 88.508 88.804 89.296 90.402 91.918 93.733 95.739 98.733 102.618 106.689 110.925 115.121 119.108 123.164 127.429 131.39 134.238 135.891 136.35 135.423 133.458 130.668 127.888 125.265 122.931 121.793 121.622 122.195 122.792 123.441 124.568 126.298 128.496 130.849 133.521 136.556 139.546 142.533 145.728 148.964 152.264 155.903 159.56 162.67 165.308 167.872 170.326 172.542 174.609 176.405 177.655 178.489 178.927 178.902 178.625 177.953 176.756 174.949 172.617 170.013 167.164 164.197 161.256 158.186 155.07 152.137 149.351 146.382 143.028 139.697 137.516 136.041 134.825 133.631 132.505 131.585 131.176 131.246 131.458 131.554 131.429 131.107 130.245 128.88 127.744 126.193 123.426 119.823 116.169 113.054 110.773 109.572 109.853 111.656 114.602 118.173 122.171 126.813 131.339 134.862 137.55 137.278 136.939 137.401 137.164 137.008 136.564 137.559 139.448 141.567 143.885 146.029 147.589 148.848 149.677 149.917 149.473 148.681 147.896 147.105 146.163 144.998 143.512 141.645 139.607 137.979 136.763 135.792 135.121 134.858 134.726 134.539 134.479 134.471 134.425 134.354 134.204 134.005 133.668 133.13 132.493 131.886 131.187 130.368 129.795 129.493 129.758 130.465 131.445 132.731 134.232 135.759 137.296 138.866 140.316 141.611 142.799 143.878 144.867 145.628 146.102 146.183 145.544 144.637 143.759 142.561 141.112 139.04 136.413 133.794 131.559 129.462 127.12 124.575 121.969 119.976 118.459 118.031 117.477 117.533 118.489 120.167 122.137 124.064 125.902 127.846 129.654 131.061 132.074 132.801 133.505 134.4 135.438 136.461 137.239 137.715 138.166 138.585 138.857 139 139.039 139.024 138.97 138.958 138.992 139.103 139.237 139.28 138.951 139.024 138.945 137.839 135.494 132.208 128.314 123.105 117.358 112.617 108.594 105.594 102.608 99.587 96.987 95.071 94.045 94.078 94.571 95.375 96.983 98.878 99.578 98.844 97.476 96.008 94.51 93.024 91.572 90.122 88.545 87.331 86.259 85.54 85.476 86.259 87.269 88.019 88.567 90.498 93.996 98.215 102.784 108 113.253 117.474 120.675 123.132 124.96 127.112 129.825 132.787 135.701 138.194 139.897 140.344 140.507 141.065 141.696 142.313 142.934 143.572 144.278
159.544 158.301 158.252 158.125 158.733 159.565 160.036 160.407 160.438 160.005 159.352 158.952 158.748 158.476 158.221 157.994 157.589 156.766 155.365 154.083 152.341 150.249 147.664 144.452 140.742 137.036 134.131 131.47 128.762 126.341 123.996 121.655 119.464 117.617 115.927 114.409 113.055 112.167 111.696 111.529 111.563 111.885 112.412 113.107 114.175 115.448 116.63 118.08 119.844 121.624 123.322 124.342 124.573 124.531 123.735 121.811 119.864 118.2 116.751 115.111 113.036 110.821 108.368 105.94 105.455 105.827 106.651 108.245 110.323 112.71 115.04 117.096 118.82 120.153 121.079 121.488 121.461 121.392 120.782 119.146 116.403 113.045 109.494 105.893 102.403 98.932 95.389 92.247 90.299 89.586 89.623 90.077 90.412 90.706 91.035 91.424 91.942 92.308 92.474 92.358 92.13 91.825 91.398 91.012 90.672 90.272 89.903 89.707 89.627 89.781 89.958 89.531 89.494 90.073 90.321 89.927 88.958 88.801 88.985 88.962 89.57 90.816 92.349 93.949 96.456 100.058 104.167 108.534 112.9 117.053 121.104 125.325 129.436 132.66 134.544 135.963 135.945 134.105 131.328 128.205 125.291 122.815 121.186 120.781 121.36 121.949 122.628 123.664 125.234 127.358 129.855 132.54 135.471 138.319 141.266 144.361 147.624 151.063 154.7 158.404 161.753 164.628 167.341 169.916 172.178 174.172 175.855 177.161 178.07 178.457 178.521 178.498 178.089 177.057 175.328 173.026 170.438 167.631 164.661 161.595 158.468 155.329 152.31 149.471 146.492 143.047 139.495 136.403 134.627 133.41 132.017 130.712 129.589 128.858 128.698 128.812 128.904 128.854 128.618 128.023 126.765 125.125 123.596 121.309 118.097 114.796 111.968 110.039 109.31 109.916 111.851 114.981 118.958 123.201 127.957 132.482 136.06 138.25 138.752 139.031 139.525 139.363 138.637 138.535 138.91 139.916 141.518 143.517 145.665 147.469 148.926 149.869 150.257 150.063 149.296 148.395 147.583 146.796 145.842 144.55 142.847 140.89 139.062 137.611 136.483 135.628 135.092 134.813 134.361 134.076 134.014 133.941 133.89 133.711 133.454 133.041 132.349 131.472 130.682 130.036 129.16 128.316 127.748 127.693 128.094 128.893 130.126 131.684 133.258 134.892 136.588 138.077 139.408 140.642 141.74 142.776 143.714 144.229 144.405 144.11 143.092 142.319 141.679 140.54 138.719 136.253 133.642 131.363 129.235 126.841 124.143 121.403 119.174 117.544 116.344 116.092 116.087 116.711 118.405 120.469 122.454 124.194 126.083 128.072 129.834 131.235 132.195 132.861 133.569 134.468 135.447 136.372 137.041 137.434 137.755 137.99 138.236 138.359 138.278 138.188 138.215 138.305 138.372 138.452 138.534 138.253 138.253 138.239 137.283 135.182 132.306 128.462 122.728 116.325 111.298 107.895 105.733 103.391 100.748 98.309 96.1 94.275 93.373 93.089 93.23 94.173 95.35 95.693 95.188 94.046 92.695 91.447 90.326 89.267 88.243 87.32 86.542 85.863 85.534 85.769 86.68 87.676 88.321 88.709 90.276 93.958 98.214 102.492 107.478 112.626 116.679 119.912 122.452 124.239 126.216 128.698 131.484 134.384 137.059 139.044 140.193 139.954 140.059 140.671 141.259 141.906 142.616 143.339
160.141 158.138 156.852 156.408 156.666 156.848 156.989 157.075 156.946 156.586 156.101 155.901 155.695 155.348 155.079 154.901 154.639 153.853 152.385 151.273 150.156 148.196 145.331 142.288 138.772 135.164 132.393 129.748 126.911 124.377 122.005 119.86 117.666 115.684 114.08 112.516 111.169 110.25 109.628 109.331 109.182 109.342 109.683 110.176 111.056 112.137 113.119 114.31 115.84 117.451 119.04 120.495 121.459 121.746 121.197 119.521 118.157 117.237 115.906 114.421 112.728 110.602 108.288 106.212 104.81 104.286 104.359 105.161 106.758 108.909 111.216 113.444 115.578 117.471 118.925 119.863 120.014 119.462 119.077 118.368 116.287 113.254 109.767 106.07 102.499 98.985 95.409 92.271 90.396 89.824 90.012 90.459 90.882 91.484 92.28 92.919 93.465 93.913 94.047 93.896 93.779 93.566 92.963 92.277 91.598 90.902 90.162 89.612 89.503 89.351 89.275 89.408 89.438 89.729 90.243 90.406 89.324 88.937 89.333 89.404 89.55 90.104 91.185 92.477 94.394 97.456 101.535 106.019 110.493 114.822 118.927 123.048 127.186 130.782 133.421 135.163 135.58 134.4 132.034 128.983 125.595 122.69 120.873 120.066 120.552 121.281 121.861 122.779 124.184 126.135 128.635 131.484 134.388 137.245 140.151 143.082 146.339 149.84 153.433 157.134 160.694 163.872 166.772 169.444 171.739 173.677 175.411 176.755 177.612 178.136 178.377 178.391 178.057 177.136 175.555 173.42 170.873 168.025 165.006 161.925 158.79 155.584 152.445 149.539 146.583 143.131 139.482 136.171 133.835 132.161 130.601 129.24 127.728 126.572 126.184 126.129 126.139 126.122 125.954 125.358 124.088 122.451 120.679 118.909 116.359 113.427 110.927 109.387 109.168 110.168 112.216 115.329 119.348 124.101 129.062 133.454 136.947 139.356 140.58 141.135 141.469 141.457 140.83 140.057 140.094 140.545 141.654 143.306 145.246 147.239 148.881 149.926 150.491 150.479 149.832 148.824 147.85 147.149 146.423 145.354 143.891 142.115 140.27 138.66 137.407 136.39 135.581 134.887 134.266 133.836 133.695 133.639 133.539 133.212 133.012 132.457 131.633 130.774 129.937 129.008 127.935 127.201 126.46 125.925 126.057 126.664 127.764 129.322 130.906 132.477 134.15 135.776 137.211 138.524 139.704 140.756 141.696 142.325 142.701 142.758 142.192 141.315 140.62 139.566 138.061 135.92 133.466 131.195 129.001 126.47 123.59 120.759 118.352 116.538 115.178 114.636 113.979 114.666 116.55 118.675 120.797 122.567 124.332 126.275 128.233 129.981 131.299 132.202 132.937 133.723 134.614 135.509 136.269 136.811 137.126 137.31 137.547 137.665 137.567 137.5 137.552 137.586 137.6 137.676 137.726 137.516 137.734 137.664 136.722 134.857 132.263 128.676 123.09 116.295 110.778 107.799 106.028 103.793 101.357 99.136 97.48 95.363 93.508 92.671 92.378 92.493 92.922 92.828 92.296 91.231 89.999 89.014 88.242 87.562 86.947 86.449 86.061 85.822 85.977 86.659 87.935 89.363 90.657 91.193 91.177 94.066 98.23 102.174 106.603 111.465 115.744 119.218 121.85 123.716 125.552 127.741 130.24 132.953 135.678 137.945 139.367 139.049 139.15 139.807 140.222 140.701 141.42 142.227
160.924 158.488 156.364 155.579 155.037 154.542 154.499 154.297 153.893 153.524 153.234 152.992 152.667 152.262 151.912 151.683 151.502 150.743 149.459 148.828 148.537 146.771 143.281 140.352 137.432 134.054 131.077 128.2 125.363 122.793 120.428 118.216 116.108 114.164 112.455 110.973 109.734 108.835 108.126 107.695 107.464 107.487 107.602 107.745 108.238 109.017 109.895 110.864 112.143 113.637 115.134 116.634 117.776 118.574 118.641 117.955 116.626 115.892 114.977 113.342 111.885 110.206 107.906 105.627 103.434 102.796 102.82 102.852 103.711 105.383 107.431 109.582 111.808 114.017 115.979 117.508 118.22 118.346 118.505 117.762 115.872 113.255 109.924 106.204 102.594 99.054 95.458 92.362 90.622 90.235 90.58 91.102 91.81 92.966 94.267 95.126 95.64 96.067 96.165 95.944 95.782 95.553 94.919 94.068 93.246 92.325 91.214 90.246 89.704 89.064 88.823 88.951 89.086 89.323 89.704 90.061 89.365 89.228 89.849 90.33 90.503 90.517 90.602 91.305 92.668 95.159 98.942 103.363 107.871 112.293 116.499 120.59 124.695 128.619 131.765 133.815 134.927 134.548 132.667 129.786 126.27 122.763 120.625 119.457 119.665 120.342 120.963 121.913 123.116 124.842 127.289 130.248 133.279 136.203 139.075 141.911 145.068 148.566 152.142 155.8 159.478 162.905 165.992 168.785 171.18 173.144 174.864 176.358 177.29 177.844 178.25 178.219 177.808 176.943 175.625 173.699 171.174 168.327 165.367 162.339 159.183 155.871 152.552 149.504 146.545 143.178 139.588 136.196 132.982 130.58 129.029 127.575 125.933 124.584 123.804 123.471 123.372 123.345 123.208 122.637 121.518 119.946 118.057 116.538 114.549 112.073 109.98 108.97 109.292 110.734 112.952 115.871 119.716 124.551 129.702 134.274 137.76 140.266 142.22 143.042 143.346 143.432 142.924 142.064 141.423 141.309 141.972 143.28 144.974 146.922 148.725 149.95 150.679 150.838 150.373 149.43 148.352 147.53 146.877 146.02 144.832 143.365 141.694 140.017 138.562 137.381 136.424 135.54 134.643 133.978 133.581 133.251 133.051 132.865 132.761 132.178 131.251 130.287 129.278 128.108 126.956 126.119 125.082 124.244 124.114 124.494 125.457 126.839 128.359 129.995 131.697 133.349 134.937 136.372 137.649 138.757 139.713 140.486 141.073 141.208 141.044 140.165 139.335 138.588 137.274 135.336 133.183 131.028 128.668 125.902 122.859 120.006 117.611 115.466 113.91 112.984 112.065 112.851 114.771 116.893 119.082 121.032 122.811 124.586 126.436 128.272 129.882 131.173 132.205 133.042 133.94 134.843 135.483 136.016 136.45 136.714 136.884 136.984 136.94 136.84 136.833 136.878 136.9 136.934 136.969 136.784 136.894 136.642 135.914 134.671 132.304 129.312 124.636 118.262 112.809 109.848 108.062 106.065 103.806 101.313 99.308 97.015 94.633 93 92.116 91.203 90.674 90.437 90.015 89.159 88.235 87.557 87.071 86.681 86.377 86.2 86.231 86.518 87.359 88.932 90.988 93.131 94.742 94.817 94.099 95.448 98.521 101.962 105.706 110.233 114.733 118.367 121.133 123.207 124.996 126.924 129.113 131.528 134.148 136.629 138.301 138.397 138.519 139.085 139.372 139.608 140.183 140.981
162.231 159.563 157.231 155.395 153.664 152.626 152.117 151.741 151.415 150.928 150.487 150.182 149.755 149.211 148.677 148.193 147.814 147.223 146.301 146.041 146.401 144.996 141.51 138.621 136.111 133.139 129.922 126.682 123.882 121.49 119.171 116.798 114.521 112.549 110.927 109.684 108.889 108.284 107.585 106.987 106.71 106.644 106.526 106.254 106.256 106.567 107.075 107.819 108.822 110.128 111.596 113.161 114.416 115.249 115.646 115.789 115.372 114.691 113.678 112.096 110.524 109.215 107.289 105.217 103.095 101.125 101.058 101.267 101.369 102.295 103.861 105.756 107.866 110.132 112.353 114.347 115.987 116.717 116.683 116.405 115.223 113.018 109.96 106.35 102.763 99.215 95.616 92.578 90.987 90.737 91.289 92.131 93.405 95.281 97.12 98.217 98.741 99.107 99.124 98.735 98.384 97.982 97.286 96.396 95.542 94.392 92.972 91.556 90.41 89.671 89.322 89.154 88.935 88.958 89.019 89.095 89.4 89.974 90.562 91 91.339 91.787 90.993 90.573 91.491 93.4 96.549 100.694 105.161 109.573 113.856 118.015 122.104 126.129 129.793 132.461 134.089 134.384 133.092 130.508 127.02 123.294 120.719 119.02 118.664 119.296 120.125 121.026 122.035 123.599 125.942 128.918 132.076 135.102 138.01 140.839 143.867 147.328 150.908 154.496 158.167 161.729 165.005 167.991 170.572 172.63 174.357 175.894 177.047 177.626 178.02 177.92 177.372 176.453 175.475 173.849 171.38 168.573 165.715 162.78 159.65 156.258 152.743 149.496 146.492 143.242 139.803 136.439 132.987 129.594 127.3 125.921 124.503 123.21 122.071 121.278 120.951 120.825 120.63 120.111 119.243 117.81 115.95 114.277 112.618 110.747 109.177 108.778 109.689 111.607 114.077 116.725 120.168 124.71 129.771 134.42 138.364 141.187 143.269 144.633 145.047 145.125 144.775 143.869 143.085 142.672 142.645 143.421 144.902 146.739 148.573 149.974 150.721 151.074 150.79 150.06 149.058 148.158 147.436 146.682 145.721 144.515 143.137 141.571 139.892 138.446 137.374 136.481 135.539 134.547 133.797 133.273 132.989 132.948 132.656 131.959 131.127 130.08 128.754 127.231 125.825 124.835 123.97 122.927 122.374 122.394 123.029 124.257 125.661 127.355 129.184 130.89 132.534 134.131 135.561 136.743 137.752 138.633 139.285 139.551 139.581 139.157 138.392 137.468 136.33 134.713 132.736 130.621 128.158 125.171 121.997 119.194 116.838 114.561 112.641 110.66 110.076 111.288 113.175 115.217 117.335 119.443 121.385 123.092 124.706 126.382 128.1 129.715 131.132 132.219 133.187 134.158 134.861 135.332 135.723 135.998 136.173 136.305 136.339 136.235 136.245 136.334 136.34 136.35 136.393 136.236 135.919 135.697 135.128 134.118 132.359 130.191 126.904 121.839 116.796 113.259 111.523 109.921 107.82 105.278 102.524 99.958 96.935 94.374 92.671 91.56 90.468 89.545 88.767 88.035 87.437 86.994 86.707 86.572 86.578 86.834 87.518 88.56 90.265 92.992 96.093 99.017 100.364 99.675 98.751 98.361 99.468 102.006 105.125 109.26 113.72 117.288 120.214 122.556 124.38 126.135 128.077 130.23 132.658 135.203 137.228 138.263 137.988 138.063 138.456 138.497 138.872 139.669
164.278 161.314 158.73 156.34 154.298 152.083 151.225 150.52 149.555 148.847 148.16 147.547 146.735 145.811 145.038 144.396 143.709 143.378 143.12 142.564 142.321 141.544 139.634 137.413 134.788 131.726 128.556 125.449 122.617 120.266 118.025 115.629 113.374 111.479 109.958 108.875 108.521 108.425 108.052 107.466 107.012 106.717 106.268 105.782 105.565 105.445 105.396 105.743 106.249 107.072 108.309 109.858 111.416 112.396 113.048 113.403 113.501 113.36 112.581 111.017 109.176 107.627 106.037 104.219 102.261 100.556 99.611 99.841 99.898 99.986 100.838 102.253 104.095 106.251 108.474 110.606 112.633 114.271 114.771 114.883 114.552 112.72 109.864 106.495 102.979 99.443 95.892 92.943 91.484 91.441 92.353 93.741 95.997 98.908 101.536 102.76 103.086 103.319 103.363 102.9 102.274 101.593 100.689 99.59 98.488 97.14 95.471 93.866 92.408 91.215 90.443 89.855 89.417 89.29 89.589 90.019 90.448 90.825 91.341 91.635 91.897 91.748 91.054 90.341 90.735 92.172 94.637 98.291 102.596 106.952 111.213 115.412 119.529 123.592 127.545 130.874 132.951 133.886 133.277 131.135 127.823 123.938 120.916 118.78 117.971 118.419 119.19 120.176 121.141 122.509 124.672 127.569 130.805 133.936 136.896 139.589 142.631 146.184 149.764 153.289 156.906 160.522 163.965 167.166 169.952 172.147 173.916 175.477 176.717 177.394 177.745 177.617 176.985 176.136 175.376 173.933 171.576 168.876 166.127 163.249 160.143 156.703 153.046 149.641 146.588 143.42 140.096 136.775 133.171 129.409 126.213 124.345 123.24 121.957 120.73 119.625 118.924 118.512 118.157 117.641 116.818 115.508 113.957 112.442 110.936 109.598 108.597 108.736 110.179 112.437 115.034 117.701 120.98 125.017 129.683 134.375 138.472 141.918 144.385 146.207 147.123 146.937 146.444 145.691 144.632 143.983 143.695 143.858 144.916 146.622 148.473 149.999 150.743 151.246 150.952 150.483 149.798 148.848 148.039 147.312 146.508 145.455 144.355 142.99 141.264 139.581 138.298 137.379 136.525 135.538 134.531 133.72 133.021 132.77 132.558 131.973 131.046 129.893 128.46 126.842 125.333 124.134 123.297 121.961 121.036 120.581 120.562 121.464 122.832 124.551 126.534 128.412 130.151 131.859 133.417 134.706 135.792 136.727 137.402 137.825 138.022 137.906 137.082 136.296 135.15 133.736 132.076 130.023 127.456 124.308 121.099 118.402 116.068 113.642 111.209 109.028 108.399 109.863 111.869 113.684 115.761 117.805 119.79 121.6 123.152 124.665 126.317 128.062 129.753 131.267 132.401 133.473 134.438 134.931 135.066 135.227 135.461 135.647 135.731 135.682 135.759 135.823 135.789 135.798 135.817 135.728 135.445 135.133 134.568 133.615 132.645 131.028 128.772 125.175 120.901 117.127 115.196 113.594 111.936 110.244 108.059 105.006 101.081 97.402 94.808 93.18 91.681 90.541 89.467 88.462 87.834 87.454 87.31 87.476 87.885 88.608 89.816 91.667 94.246 97.868 101.723 104.906 105.856 104.657 102.393 101.167 100.831 102.239 104.981 108.633 112.768 116.345 119.295 121.717 123.629 125.336 127.136 129.123 131.358 133.812 136.025 137.012 136.752 136.906 137.232 137.232 137.426 138.041
166.916 163.537 160.552 157.98 155.857 153.55 152.243 151.129 148.944 147.24 146.079 145.363 144.362 143.087 142.099 141.235 140.284 139.822 139.565 139.234 138.864 138.294 137.562 136.51 133.92 130.503 127.293 124.283 121.542 119.069 116.8 114.523 112.463 110.77 109.463 108.71 108.596 108.809 109.233 109.359 109.147 108.607 107.751 106.877 106.389 105.94 105.299 104.969 104.855 104.995 105.602 106.757 108.183 109.507 110.39 110.923 111.242 111.31 110.803 109.584 107.865 105.961 104.451 103.048 101.451 100.062 99.161 98.984 98.893 98.63 98.786 99.556 100.878 102.687 104.71 106.712 108.782 110.781 112.065 112.739 113.371 112.157 109.593 106.541 103.157 99.721 96.348 93.613 92.214 92.379 93.825 96.146 99.941 103.929 106.826 108.066 108.3 108.389 108.572 108.33 107.58 106.648 105.426 103.786 102.131 100.499 98.683 96.928 95.209 93.598 92.34 91.399 90.747 90.454 90.603 90.913 91.322 91.197 91.398 91.546 91.901 91.579 90.34 89.733 90.213 91.327 93.249 96.304 100.297 104.609 108.795 112.911 117.045 121.146 125.269 129.025 131.824 133.345 133.229 131.626 128.622 124.654 121.213 118.778 117.503 117.605 118.286 119.2 120.217 121.527 123.514 126.266 129.506 132.744 135.745 138.532 141.573 145.074 148.619 152.156 155.8 159.427 162.911 166.207 169.169 171.571 173.468 175.055 176.322 177.101 177.436 177.247 176.617 175.853 175.25 173.998 171.852 169.303 166.628 163.782 160.636 157.11 153.36 149.886 146.822 143.699 140.438 137.16 133.465 129.415 125.827 123.436 122.006 120.744 119.361 118.175 117.139 116.254 115.678 115.092 114.265 113.175 112.023 110.75 109.635 108.735 108.266 108.807 110.59 113.298 116.305 119.123 122.357 125.733 129.746 134.26 138.413 142.087 145.242 147.326 149.207 148.833 147.886 147.21 146.118 145.189 145.143 144.701 145.077 146.626 148.445 150.028 150.903 151.406 151.211 150.904 150.432 149.57 148.652 147.844 147.124 146.299 145.396 144.236 142.682 140.902 139.342 138.265 137.474 136.618 135.599 134.575 133.676 132.859 132.497 132.006 130.972 129.839 128.46 126.868 125.341 124.015 122.791 121.51 120.196 119.007 118.435 118.813 120.018 121.661 123.662 125.714 127.633 129.419 131.066 132.493 133.677 134.694 135.495 136.031 136.387 136.37 135.82 135.061 134.063 132.69 131.178 129.189 126.523 123.369 120.305 117.745 115.353 112.726 110.237 108.074 107.501 108.777 110.595 112.34 114.239 116.17 118.074 119.944 121.642 123.174 124.732 126.444 128.237 129.945 131.375 132.662 133.811 134.515 134.636 134.682 134.864 135.051 135.125 135.096 135.074 135.051 135.003 134.993 135.001 134.938 134.706 134.472 134.212 133.392 132.538 131.706 129.877 127.278 124.035 121.058 118.658 116.944 115.762 114.942 113.902 111.349 107.14 102.22 97.978 95.312 93.741 92.509 91.212 90.069 89.436 89.094 88.946 89.212 90.017 90.906 92.08 94.108 96.95 101.183 105.658 109.005 109.668 108.271 105.429 103.491 102.196 102.789 105.292 108.462 112.009 115.511 118.394 120.773 122.771 124.524 126.278 128.178 130.279 132.564 134.645 135.123 135.218 135.609 135.985 136.137 136.105 136.379
170.209 166.439 162.945 160.079 157.572 155.132 152.677 150.969 149.416 147.831 146.299 145.037 143.658 141.72 140.204 138.65 137.338 136.725 136.387 136.197 136.036 135.654 135.107 134.612 132.563 129.116 125.981 123.185 120.557 118.1 115.711 113.545 111.804 110.437 109.271 108.996 109.308 109.864 111.585 112.891 113.249 112.504 111.106 109.679 108.539 107.539 106.576 105.746 105.014 104.429 104.136 104.446 105.295 106.402 107.505 108.293 108.669 108.827 108.516 107.562 106.276 104.542 102.89 101.56 100.256 99.211 98.526 98.337 98.125 97.788 97.656 97.906 98.628 99.849 101.396 103.075 104.997 107.092 109.005 109.961 110.493 110.269 108.883 106.371 103.19 99.995 96.956 94.574 93.158 93.523 95.574 99.275 104.185 108.201 110.686 112.267 113.105 113.44 113.606 113.469 112.842 111.824 110.561 108.392 106.204 104.338 102.381 100.42 98.544 96.765 95.137 93.882 92.982 92.476 92.252 92.233 92.333 91.893 91.25 91.069 91.517 91.251 89.852 89.153 89.652 90.639 92.186 94.675 98.21 102.413 106.585 110.587 114.667 118.776 122.957 127.009 130.267 132.289 132.797 131.705 129.141 125.406 121.635 118.675 117.051 116.808 117.398 118.204 119.131 120.493 122.419 124.969 128.126 131.48 134.634 137.48 140.472 143.908 147.408 151.002 154.762 158.401 161.811 165.09 168.152 170.768 172.871 174.524 175.794 176.672 176.861 176.639 176.143 175.53 175.085 174.102 172.209 169.653 166.952 164.22 161.078 157.464 153.65 150.158 147.102 144.008 140.801 137.588 133.906 129.59 125.627 122.639 120.69 119.293 118.108 116.887 115.252 114.057 113.37 112.656 111.825 111.02 110.074 109.155 108.47 107.888 108.137 109.227 111.375 114.508 117.933 121.048 123.928 126.455 129.864 134.152 138.33 142.161 145.563 147.992 149.786 149.733 149.165 148.676 147.666 146.48 146.211 145.833 145.702 146.782 148.497 150.079 151.05 151.643 151.558 151.417 151.19 150.464 149.409 148.343 147.527 146.861 146.133 145.286 144.043 142.401 140.715 139.371 138.445 137.621 136.691 135.645 134.599 133.633 132.867 132.158 131.076 129.914 128.657 127.228 125.708 124.188 122.693 121.262 119.757 118.276 117.326 116.835 117.338 118.774 120.7 122.76 124.732 126.63 128.452 130.045 131.345 132.474 133.498 134.215 134.686 134.762 134.587 133.756 132.876 131.758 130.245 128.241 125.544 122.49 119.68 117.245 114.711 111.839 109.423 107.48 107.004 107.833 109.37 111.237 113.011 114.842 116.502 118.234 120.045 121.699 123.255 124.907 126.696 128.472 130.156 131.615 132.939 133.995 134.439 134.557 134.517 134.527 134.567 134.516 134.406 134.234 134.091 134.022 133.982 133.878 133.626 133.411 133.179 132.966 132.265 131.664 130.487 128.488 126.072 123.62 121.237 119.599 119.061 118.716 118.842 117.21 113.347 108.161 102.693 98.474 96.553 95.393 94.114 92.959 92.244 91.937 91.794 91.839 92.418 93.028 94.229 95.255 97.862 102.054 106.844 110.796 111.875 110.309 108.04 106.509 104.763 103.892 105.526 108.63 111.776 114.744 117.52 119.894 121.902 123.698 125.462 127.342 129.382 131.499 133.155 133.779 134.068 134.384 134.745 135.035 135.026 135.024
173.821 170.127 166.252 162.872 160.059 157.529 154.862 152.124 149.68 147.69 146.241 144.944 143.637 141.125 138.846 136.904 135.54 134.558 133.861 133.565 133.36 133.1 132.634 131.811 130.064 127.128 124.441 122.003 119.589 117.229 114.939 112.963 111.406 110.271 109.608 109.811 110.719 112.258 115.122 118.097 119.163 118.042 115.949 113.838 111.96 110.306 108.864 107.662 106.537 105.428 104.412 103.796 103.63 103.94 104.829 105.629 105.932 106.043 105.879 105.307 104.237 102.95 101.436 99.969 98.94 98.308 97.902 97.717 97.541 97.289 97.142 97.155 97.413 98.027 98.968 100.168 101.767 103.703 105.658 107.31 107.723 107.454 107.482 105.968 103.038 100.1 97.281 95.071 94.007 94.881 97.465 101.977 107.124 110.912 113.355 115.398 116.62 117.246 117.643 117.539 116.929 115.934 114.858 112.827 110.381 108.029 105.869 103.983 102.234 100.53 98.668 97.146 96.064 95.324 94.91 94.626 94.179 93.26 91.992 91.517 91.473 90.754 89.311 88.17 88.735 89.904 91.217 93.239 96.228 100.157 104.378 108.413 112.415 116.475 120.632 124.77 128.304 130.739 131.925 131.216 129.14 125.967 122.048 118.661 116.805 116.168 116.632 117.382 118.327 119.57 121.285 123.587 126.559 130.014 133.406 136.353 139.325 142.684 146.233 149.747 153.423 157.128 160.621 163.949 167.015 169.745 172.043 173.825 175.166 176.104 176.187 175.979 175.668 175.284 174.958 174.281 172.538 169.948 167.25 164.571 161.455 157.85 153.992 150.434 147.303 144.24 141.132 138.016 134.439 129.894 125.604 122.37 120.038 118.049 116.523 115.267 113.638 112.177 111.269 110.528 109.763 109.105 108.465 108.042 107.62 107.473 108.208 109.879 112.64 116.328 120.147 123.413 125.852 127.612 129.927 133.955 138.345 142.231 145.745 148.555 150.506 150.561 150.306 150.173 149.23 147.887 147.185 147.348 146.721 147.13 148.652 150.123 151.21 151.921 152.039 152.09 151.987 151.415 150.451 149.297 148.283 147.44 146.684 146 145.109 143.843 142.324 140.829 139.594 138.566 137.662 136.708 135.649 134.583 133.533 132.654 131.585 130.367 129.161 127.805 126.231 124.622 123.088 121.413 119.606 118.043 116.803 115.716 115.51 116.37 117.933 119.81 121.717 123.638 125.599 127.395 128.864 130.147 131.303 132.204 132.768 132.991 133 132.471 131.551 130.564 129.077 127.101 124.517 121.67 119.088 116.681 113.97 110.948 108.384 106.754 105.903 106.529 108.233 110.107 111.926 113.578 115.101 116.74 118.464 120.133 121.746 123.406 125.184 127.007 128.753 130.344 131.854 133.183 134.151 134.659 134.494 134.318 134.265 134.172 133.98 133.587 133.258 133.061 132.93 132.812 132.634 132.411 132.317 132.121 131.441 130.999 130.493 129.13 127.137 125.269 123.316 122.138 122.054 121.845 122.297 121.81 119.214 115.24 110.206 105.142 101.766 99.761 98.423 97.017 95.825 95.612 95.787 95.62 95.632 95.802 96.476 96.704 98.621 102.123 106.647 111.315 113.583 112.228 110.349 108.971 107.349 105.642 106.372 109.177 112.069 114.474 116.807 119.109 121.153 122.969 124.749 126.634 128.622 130.572 131.998 132.565 132.902 133.241 133.62 133.929 133.99 133.946
177.191 174.036 170.279 166.501 163.151 160.2 157.492 154.614 151.674 149.037 146.821 145.181 143.733 142.2 140.469 138.351 136.319 134.052 132.449 131.641 131.051 130.834 130.057 128.775 127.095 125.201 123.08 120.719 118.55 116.454 114.406 112.709 111.372 110.446 110.426 111.286 112.992 115.948 119.778 123.31 124.41 123.406 121.569 119.12 116.406 113.963 112 110.462 109.03 107.438 106.082 104.966 103.82 103.007 102.983 103.371 103.519 103.559 103.47 102.957 102.208 101.171 99.91 98.721 98.006 97.657 97.524 97.49 97.524 97.52 97.418 97.192 97.076 97.192 97.565 98.203 99.298 100.862 102.652 104.366 105.289 105.478 105.863 105.099 102.753 100.225 97.69 95.634 95.154 96.314 99.31 104.001 108.791 112.598 115.798 118.236 119.387 120.165 120.887 120.91 120.295 118.994 117.753 116.141 113.788 110.784 108.494 106.959 105.596 104.258 102.46 100.806 99.688 98.74 98.101 97.446 96.259 94.864 93.499 92.304 91.53 90.479 89.158 88.095 88.251 89.22 90.313 91.907 94.388 97.924 102.121 106.271 110.233 114.198 118.279 122.353 125.94 128.642 130.575 130.656 129.065 126.131 122.237 118.686 116.534 115.771 116.002 116.589 117.418 118.527 120.108 122.193 124.909 128.334 131.984 135.22 138.241 141.499 144.945 148.396 151.942 155.647 159.34 162.822 165.93 168.739 171.15 173.047 174.478 175.474 175.819 175.765 175.456 175.211 174.919 174.259 172.697 170.252 167.59 164.87 161.78 158.267 154.422 150.702 147.391 144.41 141.444 138.421 134.91 130.295 125.824 122.362 119.517 117.218 115.292 113.757 112.488 111.012 109.771 108.932 108.245 107.724 107.359 107.13 106.846 107.203 108.519 110.999 114.578 118.798 122.807 126.28 128.604 129.626 130.821 134.026 138.408 142.391 145.907 149.163 151.368 151.902 151.736 151.737 150.891 149.336 148.133 147.8 147.377 147.706 148.891 150.193 151.358 152.305 152.802 153.013 152.956 152.451 151.601 150.506 149.38 148.395 147.549 146.742 145.978 145.038 143.847 142.489 141.055 139.724 138.639 137.69 136.696 135.608 134.5 133.513 132.458 131.197 129.909 128.558 126.973 125.291 123.692 122.009 120.168 118.402 116.91 115.555 114.826 114.83 115.674 117.145 118.798 120.622 122.582 124.49 126.138 127.595 128.92 130.015 130.717 131.103 131.206 130.735 129.688 128.99 127.785 125.714 123.249 120.771 118.364 115.881 113.008 110.019 107.414 105.712 105.065 105.51 107.15 109.048 110.815 112.407 113.942 115.507 117.066 118.636 120.268 121.962 123.741 125.612 127.427 129.083 130.678 132.203 133.445 134.156 134.387 134.221 133.839 133.57 133.276 132.846 132.392 132.031 131.811 131.67 131.56 131.486 131.447 131.334 131.046 130.504 130.05 129.13 127.57 125.993 124.36 124.03 124.435 124.079 123.777 123.954 123.23 121.37 118.066 113.638 109.651 106.485 104.122 101.924 100.042 99.709 100.218 100.164 99.66 99.358 98.951 97.994 99.246 102.41 106.635 111.543 115.05 114.964 113.172 111.527 109.979 108.714 108.611 110.535 112.671 114.561 116.467 118.475 120.502 122.394 124.234 126.077 127.948 129.744 131.101 131.596 131.85 132.22 132.632 132.894 132.963 132.95
180.135 177.457 174.259 170.589 166.783 163.226 160.421 157.744 154.732 151.662 148.884 146.516 144.368 142.502 140.893 138.919 136.683 134.427 132.276 130.64 129.46 128.806 128.008 126.659 125.32 124.025 122.117 119.811 117.782 116.087 114.362 112.849 111.845 111.328 112.066 113.67 116.304 120.359 124.907 128.111 128.394 127.199 125.503 123.452 120.847 117.904 115.447 113.65 111.994 110.084 108.236 106.7 105.239 103.822 102.663 102.11 101.809 101.807 101.609 101.025 100.504 99.701 98.733 97.928 97.541 97.316 97.35 97.668 98.105 98.484 98.505 98.127 97.664 97.245 97.016 97.019 97.538 98.644 100.082 101.667 103.071 103.687 103.435 103.343 102.209 100.193 98.052 96.234 95.878 97.093 100.396 105.257 110.136 114.065 117.551 120.407 122.014 122.938 123.774 123.827 123.047 121.272 119.65 118.095 115.92 113.161 111.122 109.755 108.495 107.266 105.675 104.346 103.369 102.383 101.533 100.459 98.939 97.372 95.642 93.948 92.658 91.301 89.657 88.35 88.102 89.041 89.824 90.774 92.725 95.834 99.835 104.023 108 111.875 115.848 119.971 123.801 126.787 129.112 129.852 128.805 126.156 122.401 118.795 116.376 115.738 115.397 115.77 116.645 117.542 118.965 120.91 123.378 126.604 130.371 134.035 137.235 140.411 143.754 147.125 150.574 154.252 158.074 161.684 164.864 167.758 170.275 172.301 173.83 174.818 175.234 175.31 175.098 174.914 174.729 174.122 172.717 170.526 167.996 165.23 162.095 158.63 154.862 151.04 147.664 144.719 141.82 138.847 135.367 130.761 126.247 122.621 119.512 116.672 114.431 112.508 111.04 110.015 108.9 107.951 107.28 106.838 106.571 106.189 106.464 107.51 109.472 112.738 116.984 121.257 125.459 129.315 132.015 132.864 133.894 135.69 138.826 142.575 146.04 149.305 152.168 154.015 153.979 153.435 152.527 150.923 149.279 148.533 148.51 148.222 149.064 150.416 151.579 152.81 153.694 153.908 153.852 153.548 152.828 151.823 150.717 149.682 148.73 147.847 146.991 146.099 145.141 144.066 142.747 141.231 139.836 138.704 137.694 136.621 135.457 134.335 133.33 132.188 130.863 129.462 127.892 126.182 124.539 122.862 121.03 119.161 117.413 115.837 114.834 114.434 114.481 115.092 116.31 117.849 119.603 121.437 123.123 124.685 126.174 127.517 128.509 129.128 129.35 128.927 128.002 127.139 126.047 124.209 121.967 119.8 117.504 114.915 111.957 108.98 106.396 104.515 105.293 105.142 105.914 107.85 109.661 111.331 112.854 114.334 115.796 117.32 118.948 120.642 122.395 124.227 126.068 127.812 129.47 131.081 132.487 133.464 133.899 133.734 133.317 132.842 132.412 131.934 131.34 130.879 130.605 130.436 130.367 130.393 130.474 130.495 130.369 130.05 129.605 128.625 127.571 126.301 125.264 124.922 125.281 125.311 124.852 124.747 125.139 125.004 123.53 120.685 117.25 113.829 110.309 107.152 104.783 103.944 104.133 104.415 103.925 102.516 101.503 100.373 100.317 102.828 106.61 111.371 115.154 117.595 116.384 114.242 112.681 111.363 110.909 111.852 113.522 114.797 116.312 118.041 119.944 121.924 123.876 125.698 127.348 128.951 130.407 130.997 130.956 131.283 131.77 131.952 131.884 131.754
183.069 180.325 177.581 174.511 170.869 167.144 163.838 160.914 157.969 154.805 151.64 148.761 146.25 143.899 141.761 139.56 137.241 134.764 132.319 130.423 128.919 127.426 126.581 124.915 123.228 122.856 121.504 119.388 117.981 116.651 114.875 113.527 113.108 113.439 114.609 116.877 120.514 125.197 130.105 133.263 132.883 130.899 128.648 126.683 124.468 121.634 118.973 116.923 115.001 112.934 110.966 109.142 107.289 105.574 104.138 102.909 101.608 100.825 100.182 99.559 99.157 98.631 98.129 97.776 97.615 97.644 97.96 98.56 99.344 100.336 100.819 100.348 99.315 98.282 97.383 96.702 96.579 97.098 98.061 99.329 100.633 101.681 101.976 101.763 100.909 99.278 97.809 96.612 96.134 97.605 101.114 105.833 110.829 114.952 118.441 121.77 124.521 126.667 127.911 127.781 126.265 124.073 121.823 119.919 118.089 115.932 113.699 112.054 110.835 109.433 107.921 107.044 106.485 105.771 105.14 104.345 102.627 100.443 98.114 96.505 94.601 92.209 90.287 89.057 88.349 89.2 89.799 89.924 91.26 93.908 97.551 101.689 105.758 109.614 113.464 117.511 121.627 125.052 127.572 128.917 128.462 126.151 122.612 118.99 116.327 115.242 114.703 115.007 115.882 116.669 117.889 119.724 122.057 125.028 128.685 132.546 136.09 139.339 142.601 145.891 149.279 152.978 156.895 160.562 163.806 166.743 169.36 171.538 173.182 174.328 174.615 174.696 174.709 174.563 174.356 173.805 172.527 170.581 168.187 165.419 162.316 158.889 155.238 151.622 148.244 145.125 142.262 139.308 135.829 131.249 126.788 123.047 119.701 116.656 113.866 111.608 109.807 108.723 108.039 107.306 106.604 106.186 105.846 105.575 106.282 108.016 110.764 114.785 119.425 124.036 128.733 132.779 135.677 136.626 137.499 138.842 140.509 143.265 146.278 149.328 152.268 154.376 155.64 155.062 154.015 152.673 150.891 149.429 149 148.988 149.621 150.631 151.829 153.095 154.064 154.491 154.564 154.49 154.068 153.209 152.117 151.05 150.039 149.07 148.151 147.246 146.36 145.442 144.393 142.976 141.359 139.908 138.714 137.607 136.415 135.205 134.169 133.14 131.892 130.474 128.933 127.285 125.478 123.668 121.909 120.075 118.19 116.354 115.015 114.777 114.52 114.051 114.569 115.685 117.035 118.582 120.113 121.624 123.138 124.584 125.825 126.749 127.316 127.131 126.29 125.032 123.928 122.508 120.665 118.749 116.544 113.905 110.955 107.979 105.357 103.052 103.395 103.466 104.532 106.608 108.553 110.314 111.869 113.291 114.66 116.146 117.751 119.422 121.152 122.948 124.766 126.542 128.252 129.929 131.465 132.5 133.002 133.127 132.776 132.219 131.733 131.144 130.493 129.937 129.574 129.306 129.211 129.287 129.417 129.5 129.462 129.249 128.785 128.091 127.37 126.019 125.252 125.227 125.582 125.716 125.926 126.198 126.45 126.803 126.448 124.927 122.619 119.837 116.4 112.827 110.081 108.621 108.177 108.072 107.427 105.75 104.119 102.991 101.856 103.156 106.368 110.966 115.145 118.507 118.69 116.953 115.082 113.64 113.15 113.333 114.265 115.218 116.341 117.809 119.574 121.528 123.51 125.402 126.899 128.201 129.518 130.455 130.631 130.696 130.857 130.934 130.852 130.603
186.278 183.199 180.353 177.766 174.946 171.525 168.012 164.63 161.341 158.091 154.764 151.512 148.647 146.07 143.499 141.082 138.548 135.904 133.382 131.202 129.49 128.053 126.887 124.082 121.628 121.361 120.537 119.088 117.843 116.551 114.98 114.41 114.524 115.359 117.558 120.911 125.182 129.925 134.768 138.242 138.145 135.659 132.671 130.278 128.172 125.736 123.069 120.481 118.044 115.772 113.747 111.846 109.798 107.813 106.179 104.563 103.151 101.868 100.567 99.526 98.898 98.394 98.093 98.162 98.558 98.597 99.091 100.061 101.545 103.589 104.623 104.141 102.498 100.637 98.949 97.526 96.663 96.493 96.871 97.574 98.497 99.489 100.074 100.274 99.146 97.857 97.021 96.352 96.398 97.911 101.163 105.711 110.75 115.389 119.606 123.79 127.892 131.617 133.877 133.782 131.257 128.021 125.219 122.873 120.901 118.785 116.234 113.918 112.488 111.356 110.374 109.903 109.602 109.23 109.224 108.625 106.677 103.749 100.818 98.692 96.436 93.77 91.42 89.899 88.862 89.063 89.583 89.208 90.029 92.195 95.368 99.391 103.589 107.552 111.329 115.225 119.306 123.26 125.982 127.811 127.944 126.019 122.739 119.119 116.242 114.487 113.989 114.329 114.91 115.72 116.852 118.581 120.91 123.697 127.069 130.923 134.718 138.152 141.428 144.667 148.073 151.837 155.785 159.467 162.702 165.64 168.361 170.686 172.489 173.739 174.077 174.261 174.382 174.267 173.965 173.433 172.27 170.54 168.299 165.546 162.455 159.135 155.56 152.101 148.888 145.731 142.808 139.743 136.238 131.859 127.497 123.558 119.973 116.847 113.86 111.037 108.972 107.671 106.983 106.476 105.863 105.523 105.248 105.381 106.482 108.751 112.274 116.999 121.987 126.985 132.045 136.01 138.458 139.515 140.512 141.642 143.16 145.031 146.829 149.393 152.356 154.68 155.932 155.991 155.579 154.581 152.825 151.017 149.779 150.02 150.206 150.773 151.984 153.247 154.33 154.93 154.938 154.942 155.007 154.451 153.517 152.401 151.293 150.256 149.255 148.323 147.489 146.665 145.781 144.556 142.989 141.354 139.93 138.704 137.521 136.24 135.047 133.991 132.815 131.393 129.933 128.33 126.394 124.444 122.733 121.029 119.14 117.136 115.495 114.57 114.131 113.686 113.642 114.001 114.87 116.117 117.43 118.754 120.082 121.408 122.648 123.738 124.563 124.779 124.494 123.543 121.998 120.727 119.382 117.597 115.39 112.724 109.757 106.806 104.219 101.946 101.551 101.621 102.911 105.122 107.251 109.176 110.774 112.13 113.511 115.012 116.588 118.234 119.949 121.734 123.524 125.287 127.07 128.863 130.458 131.503 131.714 132.124 132.19 131.714 131.088 130.522 130.078 129.446 128.882 128.403 128.175 128.172 128.198 128.18 128.147 127.946 127.488 126.711 125.473 124.737 125.124 125.383 125.393 125.419 126.427 127.509 127.634 127.768 127.947 127.259 125.726 123.616 121.02 118.268 115.668 113.594 112.573 111.808 110.78 109.434 107.708 106.474 104.925 103.93 105.97 110.405 115.076 118.714 120.326 119.384 117.389 115.542 114.632 114.571 115.168 115.969 116.626 117.833 119.369 121.128 123.039 124.929 126.548 127.698 128.772 129.89 130.516 130.322 130.044 130.013 129.848 129.425
189.579 186.547 183.401 180.662 178.162 175.436 172.364 168.984 165.255 161.579 158.13 154.76 151.623 148.748 145.931 143.322 140.518 137.593 134.95 132.645 130.596 128.588 126.697 124.48 122.325 120.584 119.33 118.228 116.89 115.867 115.657 115.719 115.859 117.295 120.806 125.176 129.841 134.469 139.027 142.947 143.601 141.152 137.694 134.612 132.016 129.526 126.941 124.222 121.387 118.732 116.569 114.656 112.555 110.485 108.727 107.138 105.445 103.643 102.29 100.975 99.782 98.999 98.784 99.069 99.161 99.121 100.236 101.928 104.993 108.218 109.394 109.133 107.108 104.258 101.641 99.459 97.848 96.846 96.458 96.524 96.947 97.608 98.208 98.624 98.108 97.454 96.599 96.035 96.49 98.255 101.453 105.747 110.622 115.401 120.373 125.535 130.844 136.012 139.259 139.109 136.113 132.475 129.419 126.553 123.886 121.521 118.636 116.011 114.078 113.098 112.91 112.884 112.755 112.777 113.157 112.282 109.956 106.649 103.347 100.873 98.406 95.73 93.181 91.133 89.494 88.539 89.135 88.743 88.917 90.553 93.322 97.161 101.448 105.609 109.417 113.14 117.046 121.072 124.533 126.559 126.975 125.606 122.653 119.107 116.079 114.187 113.394 113.331 113.747 114.547 115.757 117.483 119.792 122.498 125.599 129.27 133.213 136.917 140.268 143.477 146.901 150.712 154.654 158.347 161.605 164.547 167.295 169.729 171.735 173.19 173.854 174.215 174.137 174.016 173.813 173.218 171.958 170.414 168.366 165.664 162.594 159.351 155.939 152.472 149.386 146.358 143.345 140.116 136.629 132.723 128.455 124.307 120.533 117.151 113.969 110.927 108.389 106.988 106.311 105.718 105.181 104.772 104.853 105.383 106.884 109.69 114.021 119.367 124.524 129.379 134.013 137.937 140.314 141.219 142.151 143.511 145.027 146.386 147.501 149.669 152.566 155.028 156.57 157.344 157.373 156.568 154.942 152.98 151.297 150.767 150.863 151.242 152.15 153.35 154.474 155.07 155.059 155.159 155.534 155.368 154.782 153.812 152.596 151.435 150.345 149.362 148.564 147.81 146.925 145.804 144.438 142.881 141.388 140.046 138.742 137.403 136.051 134.794 133.593 132.158 130.745 129.287 127.401 125.322 123.512 121.906 120.129 118.073 116.279 114.888 113.264 112.573 112.771 112.527 112.814 113.833 114.999 116.129 117.199 118.29 119.378 120.473 121.432 122.08 122.053 121.397 120.165 118.971 117.889 116.277 113.964 111.254 108.393 105.521 102.978 100.833 99.292 99.577 101.176 103.415 105.742 107.838 109.596 111.052 112.445 113.897 115.413 117.008 118.736 120.586 122.375 124.137 125.983 127.819 129.452 130.803 131.307 131.187 131.352 131.154 130.523 130.038 129.645 129.033 128.279 127.576 127.142 126.932 126.742 126.575 126.493 126.217 125.735 124.795 123.781 123.737 124.327 124.521 124.22 125.181 126.817 127.84 128.506 128.713 128.926 128.701 127.75 126.185 124.164 122.144 119.997 117.927 116.787 115.664 114.286 113.147 111.422 109.767 107.849 105.028 106.04 110.146 114.963 118.6 121.175 121.284 119.658 117.589 116.296 115.956 116.095 116.28 116.695 117.76 119.132 120.715 122.465 124.403 126.21 127.474 128.403 129.398 129.581 129.43 129.301 129.108 128.946 128.506
193.096 190.342 187.093 183.901 181.085 178.46 175.672 172.527 169.165 165.515 161.873 158.493 155.234 152.045 148.902 145.978 142.954 139.758 136.846 134.445 132.538 130.453 128.174 125.892 123.753 122.274 121.194 119.839 118.657 117.775 117.731 117.782 118.132 119.994 124.068 128.931 133.953 138.798 143.393 147.62 148.931 147.044 143.596 139.999 136.689 133.602 130.806 127.998 124.993 122.08 119.667 117.618 115.536 113.525 111.709 110.044 108.308 106.419 104.708 103.24 101.668 100.291 99.885 99.633 99.627 99.965 101.332 103.914 108.239 112.381 113.961 113.951 111.996 108.645 105.417 102.549 100.047 98.187 96.953 96.311 96.188 96.372 96.687 97.201 97.378 97.264 96.548 96.325 97.012 98.701 101.667 105.743 110.392 115.168 120.282 126.431 133.303 139.385 143.374 143.198 139.721 136.317 133.628 130.819 127.654 124.403 121.236 118.778 116.753 115.922 116.064 116.159 116.043 116.187 116.167 114.722 112.006 108.619 105.636 103.191 100.632 97.869 95.066 92.606 90.508 88.971 88.597 88.18 88.254 89.276 91.429 94.919 99.215 103.57 107.527 111.204 114.934 118.856 122.495 124.96 125.813 124.655 122.197 119.016 115.95 114.094 112.973 112.241 112.515 113.425 114.758 116.399 118.577 121.254 124.221 127.661 131.585 135.511 139.04 142.299 145.719 149.537 153.457 157.134 160.437 163.435 166.166 168.666 170.849 172.567 173.634 173.973 174.038 173.904 173.578 173.062 171.868 170.327 168.334 165.723 162.728 159.567 156.286 152.964 149.865 146.857 143.787 140.458 137.054 133.438 129.34 125.138 121.211 117.452 114.122 110.949 108.203 106.64 105.754 104.889 104.35 103.861 104.243 105.447 107.522 110.817 115.643 121.319 126.587 131.14 135.271 139.125 141.833 142.764 143.554 144.945 146.246 147.639 148.698 150.505 153.002 155.383 156.999 158.558 158.868 158.161 156.951 155.131 153.222 151.989 151.903 151.926 152.521 153.634 154.622 155.24 155.755 155.908 156.145 156.287 155.919 155.101 153.946 152.731 151.567 150.509 149.659 148.89 148.036 146.971 145.663 144.274 142.904 141.554 140.189 138.721 137.199 135.705 134.387 132.96 131.55 130.215 128.512 126.417 124.346 122.667 121.062 119.169 117.257 115.297 113.124 111.198 111.054 110.943 110.724 111.312 112.331 113.382 114.381 115.307 116.275 117.357 118.37 119.119 119.354 119.181 118.474 117.054 115.876 114.566 112.444 109.832 107.155 104.366 101.782 99.783 98.26 98.407 99.793 101.781 104.053 106.275 108.234 109.89 111.392 112.829 114.261 115.727 117.476 119.44 121.289 123.043 124.884 126.749 128.44 129.869 130.923 131.14 131.082 130.695 129.992 129.337 128.86 128.274 127.45 126.64 125.991 125.533 125.118 124.817 124.465 124.088 123.553 122.556 121.872 121.949 122.766 123.427 124.204 125.442 126.899 128.005 128.743 129.072 129.464 129.755 129.307 128.187 126.66 124.81 122.751 121.121 119.996 118.915 117.482 116.166 114.657 112.916 111.166 108.273 107.619 110.528 114.978 118.788 121.48 122.697 121.666 119.71 117.723 116.846 116.73 116.42 116.725 117.708 118.955 120.387 122.084 124.068 126.002 127.295 128.262 129.109 129.034 128.794 128.841 128.534 128.142 127.746
